8.68262 -30.884399999999999 -31.9162
2.15659 -27.895700000000001 -33.292999999999999
11.5428 -23.3767 -31.541899999999998
3.5032199999999998 -18.958200000000001 -33.307400000000001
10.9475 -15.1922 -31.872299999999999
6.9539200000000001 -8.3726500000000001 -32.724600000000002
0.273594 -12.1882 -33.368499999999997
12.6828 -4.0288300000000001 -31.0457
1.0583899999999999 -3.27854 -33.491199999999999
6.9166600000000003 3.4934099999999999 -32.6892
1.6027400000000001 10.2659 -33.416699999999999
10.6174 10.232100000000001 -31.688300000000002
3.80389 17.7075 -33.256900000000002
9.4942100000000007 22.306000000000001 -32.064
2.0619399999999999 27.414999999999999 -33.577800000000003
0.27921099999999999 -35.6068 -31.6495
15.803599999999999 -30.0425 -29.3248
-4.157 -21.9861 -33.163600000000002
16.311800000000002 -10.3832 -29.351800000000001
-2.8745599999999998 3.4033600000000002 -33.393099999999997
15.431100000000001 4.5674400000000004 -29.769200000000001
8.7921399999999998 30.454499999999999 -32.195500000000003
-0.91519099999999998 34.165399999999998 -33.5702
7.2505600000000001 37.912999999999997 -32.587499999999999
0.52663800000000005 41.802300000000002 -33.502400000000002
9.3388600000000004 45.416699999999999 -32.041899999999998
1.22482 50.023200000000003 -33.514200000000002
8.5280500000000004 54.345199999999998 -32.310200000000002
3.3902999999999999 61.223199999999999 -33.2941
6.1961700000000004 68.824700000000007 -32.860799999999998
-5.6232199999999999 -29.335599999999999 -32.619
19.1495 -23.8826 -27.727
-5.8619300000000001 -5.7872899999999996 -32.946399999999997
-4.5886699999999996 13.8698 -33.165999999999997
16.7302 15.067399999999999 -29.020099999999999
-4.3949299999999996 21.361899999999999 -33.290700000000001
16.296399999999998 22.438300000000002 -29.27
15.936299999999999 30.650200000000002 -29.3995
15.125500000000001 38.040199999999999 -29.865400000000001
10.588900000000001 61.906500000000001 -31.5901
-1.32498 67.750500000000002 -33.558599999999998
11.966799999999999 73.042599999999993 -31.215800000000002
-0.48563800000000001 75.378699999999995 -33.603099999999998
9.6837999999999997 79.836299999999994 -31.984400000000001
2.3060900000000002 82.747100000000003 -33.411799999999999
10.9819 86.856099999999998 -31.502400000000002
1.43571 91.063599999999994 -33.503900000000002
8.0531100000000002 94.763999999999996 -32.422899999999998
3.3930099999999999 100.71899999999999 -33.278599999999997
5.8072600000000003 108.833 -32.948099999999997
-7.4591200000000004 -15.239599999999999 -32.451799999999999
19.6553 -2.83941 -27.2408
-6.3075799999999997 28.824000000000002 -33.007100000000001
16.462299999999999 47.112299999999998 -29.053100000000001
-5.0316299999999998 53.514000000000003 -33.2502
16.369900000000001 55.382399999999997 -29.081800000000001
12.9788 100.279 -30.6355
9.55959 115.03400000000001 -31.5717
8.5625 -37.506999999999998 -28.5943
21.895299999999999 -15.6248 -25.732299999999999
-7.1791499999999999 39.494900000000001 -32.810000000000002
-7.5869099999999996 46.678199999999997 -32.807400000000001
-6.6751699999999996 62.497300000000003 -33.0047
17.538799999999998 63.532499999999999 -28.330400000000001
16.713200000000001 79.216099999999997 -28.783200000000001
-5.3108399999999998 82.141999999999996 -33.257199999999997
15.876200000000001 91.914900000000003 -29.206600000000002
-4.6223799999999997 95.627700000000004 -33.326099999999997
-4.1867000000000001 105.133 -33.338099999999997
13.6069 107.554 -30.3614
-2.6234099999999998 113.38500000000001 -33.405099999999997
21.702100000000002 -33.411000000000001 -24.9146
-11.5746 -22.919499999999999 -31.433399999999999
-10.7613 1.90621 -31.837199999999999
21.569800000000001 6.7067699999999997 -25.723500000000001
-7.6625399999999999 72.248400000000004 -32.812899999999999
3.1878199999999999 119.35899999999999 -31.950700000000001
-12.2441 -9.3297299999999996 -31.1479
-11.725899999999999 10.009499999999999 -31.474399999999999
22.7288 14.528700000000001 -24.707599999999999
22.035799999999998 24.679200000000002 -25.225300000000001
21.862100000000002 33.109400000000001 -25.316600000000001
21.784700000000001 40.686599999999999 -25.373100000000001
20.175599999999999 70.320599999999999 -26.445699999999999
-8.5628700000000002 89.378100000000003 -32.6098
18.778500000000001 103.307 -27.3187
17.553899999999999 115.315 -27.652999999999999
14.910299999999999 -38.113500000000002 -24.441199999999998
-11.497400000000001 -36.240299999999998 -29.564499999999999
25.200700000000001 -26.011099999999999 -22.6052
-12.683 18.425899999999999 -31.070499999999999
22.3781 49.561999999999998 -24.794599999999999
-12.1783 56.320399999999999 -31.5291
22.239599999999999 57.104300000000002 -24.843900000000001
20.665099999999999 87.519400000000005 -25.9725
-10.349 99.908600000000007 -32.089500000000001
-10.0618 113.233 -32.240400000000001
-4.9883600000000001 120.797 -31.4878
10.979200000000001 121.849 -29.004000000000001
25.523 -8.8588000000000005 -22.162099999999999
-13.873799999999999 28.721900000000002 -30.654800000000002
-12.558999999999999 81.963800000000006 -31.400600000000001
2.2012900000000002 -38.298900000000003 -25.246700000000001
-15.8185 -30.354099999999999 -28.994
25.840499999999999 -0.47327999999999998 -21.6572
-14.648400000000001 48.261099999999999 -30.4815
-14.3134 64.634100000000004 -30.683399999999999
23.409600000000001 76.402500000000003 -23.6708
22.904399999999999 95.131399999999999 -24.019600000000001
2.2191100000000001 126.215 -28.719999999999999
27.5411 -18.439299999999999 -20.107600000000001
-16.4297 -17.630199999999999 -29.186800000000002
-16.4604 -3.14601 -29.338200000000001
-16.815999999999999 5.4564500000000002 -29.0793
-15.251300000000001 38.541699999999999 -30.086500000000001
24.755299999999998 66.147000000000006 -22.302600000000002
-15.3645 75.150199999999998 -30.250800000000002
22.978400000000001 110.762 -23.6965
27.168099999999999 9.8808699999999998 -19.915600000000001
26.815300000000001 19.033100000000001 -20.347100000000001
26.4756 28.637499999999999 -20.663799999999998
-16.017399999999999 90.879400000000004 -29.9191
-15.373100000000001 106.613 -30.2272
21.2438 119.875 -23.410799999999998
24.9818 -36.446300000000001 -19.2074
-18.6158 13.7416 -28.0395
26.906700000000001 39.8782 -19.9849
25.7241 89.149500000000003 -21.020700000000001
24.977900000000002 103.345 -21.7318
-14.190899999999999 119.529 -29.3277
15.2264 126.43899999999999 -23.937100000000001
-18.9086 -10.821300000000001 -27.6432
-18.4434 22.859400000000001 -28.199200000000001
27.398299999999999 47.331200000000003 -19.237100000000002
27.306799999999999 54.892000000000003 -19.2957
26.595800000000001 81.788799999999995 -19.883600000000001
-7.8072400000000002 127.008 -27.528300000000002
-8.0519200000000009 -38.453800000000001 -23.597300000000001
29.376799999999999 -30.4145 -16.4101
-20.805599999999998 -25.7163 -26.116299999999999
-19.962599999999998 33.153100000000002 -27.238800000000001
-15.858599999999999 -38.357999999999997 -24.2835
29.8184 -7.2432800000000004 -16.302099999999999
-20.556999999999999 43.092300000000002 -26.851700000000001
-20.588799999999999 50.524799999999999 -26.932600000000001
-20.365400000000001 63.052999999999997 -27.117799999999999
-19.407399999999999 81.326800000000006 -27.907
27.4435 96.719200000000001 -18.6341
-19.909099999999999 96.704899999999995 -27.619499999999999
4.3217499999999998 131.35599999999999 -23.917999999999999
29.3447 33.693100000000001 -16.372
28.863499999999998 69.873400000000004 -16.955300000000001
-20.965800000000002 70.736500000000007 -26.716200000000001
27.6508 109.639 -18.046399999999998
-19.5823 114.23399999999999 -27.663
26.356200000000001 117.773 -18.413499999999999
8.4568600000000007 -38.007800000000003 -18.179400000000001
-23.002400000000002 -16.7439 -24.365300000000001
30.524100000000001 2.7249099999999999 -14.6477
30.1328 15.0198 -15.1122
30.0792 24.091699999999999 -15.153
29.347899999999999 61.0383 -16.0168
17.086600000000001 -37.985300000000002 -15.755599999999999
-22.680399999999999 -33.522100000000002 -23.327999999999999
31.590800000000002 -20.665199999999999 -13.1465
-23.222000000000001 -2.7418399999999998 -24.127700000000001
-23.241199999999999 9.4287399999999995 -24.315899999999999
-22.4526 88.5702 -25.619800000000001
-14.9781 126.523 -25.041599999999999
29.886600000000001 77.316800000000001 -14.7476
-22.626799999999999 104.31 -25.5169
23.078600000000002 125.916 -17.0581
12.0276 132.42099999999999 -19.217700000000001
-4.29948 132.828 -22.291799999999999
27.1356 -37.743200000000002 -12.267799999999999
-24.292999999999999 16.735499999999998 -23.186499999999999
30.1602 85.067400000000006 -14.062900000000001
-2.3929100000000001 -38.030700000000003 -17.203499999999998
31.985600000000002 -12.5038 -11.181100000000001
-24.979800000000001 26.592099999999999 -22.8002
31.113700000000001 48.441800000000001 -12.496499999999999
-24.822600000000001 54.994900000000001 -23.174600000000002
30.1068 104.446 -13.673299999999999
-21.5929 120.926 -23.8962
2.3865400000000001 137.637 -20.192699999999999
32.292200000000001 -28.6907 -9.8810699999999994
-25.945499999999999 -23.502199999999998 -20.989000000000001
-25.5169 35.543100000000003 -22.064
31.6691 39.2408 -11.2935
31.3687 55.578499999999998 -11.826700000000001
-25.136900000000001 77.312799999999996 -23.0258
30.7485 93.233699999999999 -12.5685
-1.75003 144.44 -20.003
32.581299999999999 -1.9600900000000001 -9.4907599999999999
-25.814900000000002 63.139800000000001 -22.110900000000001
-25.3934 97.607399999999998 -22.596800000000002
-25.278600000000001 111.842 -22.976500000000001
9.2178400000000007 139.22800000000001 -17.343599999999999
4.9405299999999999 147.554 -18.4695
-0.48846800000000001 152.60499999999999 -19.126300000000001
-26.746300000000002 -11.644600000000001 -20.040199999999999
-26.441099999999999 4.2947800000000003 -20.489899999999999
32.539200000000001 7.33962 -9.1729099999999999
32.247900000000001 29.743300000000001 -9.7563899999999997
-26.549399999999999 45.186100000000003 -21.088100000000001
31.896599999999999 68.489900000000006 -10.3309
29.6496 118.574 -11.833500000000001
17.9054 132.27500000000001 -14.368499999999999
6.0255799999999997 155.65700000000001 -17.408999999999999
0.073780999999999999 160.09999999999999 -18.519500000000001
-20.571899999999999 -38.516800000000003 -17.593599999999999
-10.301500000000001 -37.904800000000002 -15.6676
32.646000000000001 20.532699999999998 -8.5320699999999992
-26.8856 70.645099999999999 -20.8992
-15.262700000000001 131.446 -19.781099999999999
-8.76891 138.26400000000001 -18.923999999999999
6.52562 162.95400000000001 -16.590599999999998
0.628224 167.595 -17.904399999999999
-8.9394600000000004 145.727 -18.3246
12.306100000000001 146.999 -14.100099999999999
2.6434500000000001 -37.7592 -11.678800000000001
9.9900800000000007 -37.647799999999997 -10.2797
18.808800000000002 -37.661200000000001 -8.6031399999999998
-27.440200000000001 -33.400399999999998 -17.522099999999998
-28.100000000000001 -4.5809300000000004 -18.2852
-27.786799999999999 89.511799999999994 -19.977399999999999
31.723400000000002 110.259 -9.0814699999999995
25.599599999999999 127.465 -10.422499999999999
-8.5232500000000009 154.209 -17.359000000000002
-6.4276799999999996 163.72800000000001 -17.221599999999999
-28.862100000000002 12.474600000000001 -17.662099999999999
32.4878 75.093699999999998 -7.4287099999999997
32.2256 98.482299999999995 -7.87493
-28.082000000000001 105.23099999999999 -19.5884
12.599399999999999 155.929 -12.748699999999999
9.6964299999999994 169.321 -13.651300000000001
33.781300000000002 -24.215299999999999 -4.4029999999999996
-29.1675 -18.882400000000001 -16.453299999999999
33.675600000000003 -8.4238 -4.7217200000000004
-29.063400000000001 19.985099999999999 -17.123000000000001
33.038600000000002 45.608400000000003 -5.97438
32.5959 85.758399999999995 -6.8062199999999997
-23.867899999999999 125.479 -18.398700000000002
15.6182 140.15700000000001 -11.1372
26.474900000000002 -38.269100000000002 -4.8405500000000004
32.826700000000002 -34.605499999999999 -3.75583
33.548299999999998 13.9918 -4.4326699999999999
-29.367000000000001 29.544 -16.780899999999999
-29.3705 51.415700000000001 -17.2502
33.063299999999998 60.317100000000003 -5.4107099999999999
13.1563 163.47399999999999 -11.178000000000001
33.3581 37.2042 -4.2539300000000004
-29.8231 60.275500000000001 -16.6097
-29.762899999999998 79.076599999999999 -16.879999999999999
-28.115300000000001 118.747 -17.526800000000001
-8.3528400000000005 170.697 -14.498799999999999
33.780299999999997 3.7825600000000001 -2.7503500000000001
-30.106300000000001 39.564500000000002 -15.585000000000001
29.623000000000001 123.29900000000001 -5.7151500000000004
21.1782 132.58699999999999 -7.6129499999999997
2.4993400000000001 171.22999999999999 -11.944599999999999
-30.313400000000001 -27.053000000000001 -13.499499999999999
34.156799999999997 -17.3492 -1.48106
-30.385899999999999 95.580500000000001 -15.9659
32.250700000000002 115.688 -4.3475700000000002
-15.393000000000001 139.774 -13.943199999999999
16.3964 149.94200000000001 -8.1118799999999993
-13.1936 160.05799999999999 -13.977399999999999
-26.1753 -38.236499999999999 -11.7372
-4.94984 -37.675899999999999 -7.79732
-30.991399999999999 -10.7254 -13.158799999999999
-30.717199999999998 1.3531200000000001 -13.648
33.744500000000002 22.2652 -1.5714600000000001
-14.9214 150.26499999999999 -13.244
33.329799999999999 68.659300000000002 -1.83114
-31.177499999999998 70.021500000000003 -13.981999999999999
33.3142 79.907300000000006 -2.00949
-31.273099999999999 85.649500000000003 -14.442600000000001
33.188000000000002 93.362300000000005 -2.2991199999999998
-20.2973 132.209 -13.448
-18.454999999999998 -37.781700000000001 -8.8464200000000002
33.023800000000001 106.10599999999999 -1.8190999999999999
-31.1906 112.175 -14.1297
25.9358 129.28 -3.4172699999999998
15.4465 168.84100000000001 -6.2749699999999997
1.9777800000000001 -37.642299999999999 -4.1924400000000004
13.7325 -37.4161 -1.9553799999999999
33.819800000000001 -28.496500000000001 1.70139
33.746299999999998 29.0928 0.78025599999999995
33.6252 51.436900000000001 0.18668100000000001
18.204799999999999 143.995 -4.5352600000000001
16.9129 157.529 -5.0946100000000003
34.015999999999998 -3.83745 2.03708
-31.739699999999999 11.1312 -10.8695
-31.872299999999999 46.240099999999998 -11.425599999999999
7.5361500000000001 171.411 -6.41716
27.502600000000001 -38.3643 2.3397299999999999
-32.153599999999997 -17.174499999999998 -9.5882299999999994
-32.163800000000002 21.565100000000001 -10.3188
-32.3977 32.736699999999999 -10.4213
33.586500000000001 41.036000000000001 1.8343799999999999
-32.171799999999998 103.125 -11.9002
-29.216799999999999 123.13800000000001 -11.7308
33.734000000000002 15.672599999999999 3.1166999999999998
-32.553199999999997 63.479700000000001 -10.4343
-16.458600000000001 165.93299999999999 -9.3482000000000003
-31.5427 -33.6937 -7.6128400000000003
-32.5687 -5.1890499999999999 -8.2688400000000009
33.691499999999998 8.2104199999999992 4.0133099999999997
-32.7301 55.281799999999997 -9.5620799999999999
33.315800000000003 62.051400000000001 2.8995299999999999
-7.5780000000000003 171.31200000000001 -7.0128700000000004
-33.4313 77.019999999999996 -9.1273199999999992
-33.129600000000003 92.686099999999996 -9.5947200000000006
30.494199999999999 122.489 2.0526900000000001
-20.0259 136.90899999999999 -7.8728699999999998
-18.879000000000001 145.92400000000001 -7.9058000000000002
-18.170200000000001 154.06299999999999 -7.8354900000000001
-14.2933 -37.456099999999999 -2.72872
-33.123800000000003 2.7917800000000002 -6.9311999999999996
33.015500000000003 72.549300000000002 4.1638799999999998
32.546199999999999 115.131 3.2673700000000001
-32.468200000000003 117.322 -9.1232199999999999
-26.036799999999999 129.50899999999999 -8.1034100000000002
20.0715 135.24700000000001 0.47431600000000002
32.388500000000001 -34.4512 6.8271699999999997
33.526299999999999 -13.4307 6.68546
32.941699999999997 86.026200000000003 4.6490900000000002
32.940100000000001 97.243399999999994 4.4311800000000003
17.959399999999999 152.26599999999999 0.65522000000000002
16.8962 165.31700000000001 0.019036000000000001
-27.061499999999999 -38.5045 -3.6106600000000002
18.410399999999999 -37.516800000000003 4.8633800000000003
-5.75448 -37.7027 0.42695300000000003
33.118299999999998 23.224599999999999 6.6598499999999996
33.088299999999997 33.694000000000003 6.4513299999999996
-33.316000000000003 40.384300000000003 -6.3403400000000003
33.019199999999998 47.154699999999998 6.1777199999999999
-0.16885900000000001 171.624 -2.4248500000000002
4.6974499999999999 -37.6556 3.4654400000000001
-33.049700000000001 -26.9163 -4.2509300000000003
33.017699999999998 -23.118099999999998 8.3077900000000007
-33.7928 109.944 -7.0141900000000001
-33.600999999999999 27.738800000000001 -4.4417299999999997
32.705199999999998 56.156300000000002 7.4665800000000004
-33.766100000000002 68.830200000000005 -5.4529800000000002
32.316600000000001 106.258 6.4227499999999997
12.157999999999999 171.28100000000001 1.3175399999999999
-33.128300000000003 -10.4148 -3.0005799999999998
-33.733199999999997 16.118200000000002 -3.8633099999999998
-34.0593 99.513999999999996 -5.2905499999999996
25.5624 129.41999999999999 5.40299
-21.011299999999999 -37.760100000000001 0.593364
-33.849800000000002 9.0133899999999993 -2.8083200000000001
-34.121699999999997 83.062899999999999 -4.27569
-19.264399999999998 160.27000000000001 -2.93391
23.7117 -38.195 9.9512
-33.441499999999998 -19.381599999999999 -1.39323
32.3384 -5.8712400000000002 10.863799999999999
32.250599999999999 14.335599999999999 10.461399999999999
-34.0321 49.431699999999999 -2.8425099999999999
-34.096699999999998 58.403399999999998 -3.0291600000000001
32.047899999999998 65.1708 9.4516799999999996
32.0289 78.631600000000006 9.1872199999999999
-31.314599999999999 123.499 -3.5855600000000001
18.033100000000001 143.52799999999999 5.2641299999999998
16.782299999999999 158.47 4.7344799999999996
-18.548300000000001 169.81999999999999 -2.0462099999999999
11.781700000000001 -37.527000000000001 8.2902900000000006
31.957899999999999 2.3675799999999998 11.623699999999999
31.9313 39.780700000000003 10.678599999999999
-32.250399999999999 -35.065600000000003 0.86535300000000004
-33.475999999999999 -1.3345499999999999 0.054415999999999999
-34.595100000000002 92.831800000000001 -2.27014
29.8795 120.502 9.5262799999999999
-25.726900000000001 131.65000000000001 -1.10629
-20.662400000000002 145.22999999999999 -0.51237900000000003
-9.8526199999999999 171.32400000000001 0.93076700000000001
4.1059400000000004 171.589 3.58718
-2.3640699999999999 -37.687600000000003 7.2486800000000002
30.979199999999999 -29.7851 13.3505
31.386299999999999 29.946200000000001 12.469900000000001
-33.875 35.809600000000003 -0.28750999999999999
-34.362299999999998 74.985699999999994 -1.01153
31.3614 92.138000000000005 11.089600000000001
-21.488499999999998 137.50899999999999 0.11412700000000001
-12.1591 -37.515700000000002 6.0563000000000002
31.3108 -15.527799999999999 13.885400000000001
-34.308199999999999 106.19799999999999 -0.80689599999999995
30.827400000000001 21.871700000000001 13.865600000000001
30.861499999999999 47.129199999999997 13.511200000000001
-34.179900000000004 115.336 -0.35484500000000002
17.832599999999999 135.364 9.1880000000000006
14.976900000000001 166.78299999999999 8.0611499999999996
30.5473 72.712500000000006 13.584
30.577500000000001 100.652 13.068099999999999
15.828900000000001 149.584 9.2872900000000005
5.0583499999999999 -37.837299999999999 11.6302
-33.145499999999998 -25.304600000000001 3.9727899999999998
-33.3185 -12.558299999999999 3.9971399999999999
-33.771700000000003 21.956900000000001 2.9348999999999998
30.232399999999998 60.048999999999999 14.5169
30.131 110.878 13.5106
-19.934699999999999 151.27500000000001 3.33541
-3.9409100000000001 171.47399999999999 5.8633199999999999
15.9396 -37.8626 14.4657
-33.469499999999996 6.2160700000000002 4.2344900000000001
-34.051600000000001 43.793700000000001 3.3502700000000001
-34.006700000000002 53.1935 3.3369399999999998
-34.1995 65.363900000000001 2.75936
29.941199999999998 84.004199999999997 14.7957
25.242699999999999 126.541 13.1105
-28.3019 -38.027900000000002 6.7998000000000003
29.398700000000002 -21.680399999999999 17.5261
29.461099999999998 -8.0014000000000003 17.1707
29.4282 9.3935300000000002 16.927700000000002
-34.362200000000001 80.664000000000001 3.4782999999999999
-18.811800000000002 164.785 4.8184699999999996
22.997199999999999 -38.246200000000002 17.302299999999999
-33.576000000000001 30.218499999999999 5.47098
-21.217099999999999 -38.101399999999998 9.6723199999999991
28.682400000000001 1.05369 18.3048
-33.264699999999998 15.2491 6.5399700000000003
28.707100000000001 36.705599999999997 17.754000000000001
-34.176200000000001 91.626199999999997 4.8296700000000001
-34.356999999999999 99.701899999999995 4.5356800000000002
-31.608599999999999 122.946 4.5629600000000003
14.197699999999999 140.84100000000001 13.0299
-20.016100000000002 141.185 6.3773
12.8683 157.03700000000001 12.5886
5.7815000000000003 171.23099999999999 10.6683
-32.678600000000003 -1.25203 7.7154100000000003
28.144600000000001 28.0015 18.696899999999999
28.3855 53.2258 18.221900000000002
28.325299999999999 67.365300000000005 17.852699999999999
27.785599999999999 116.92100000000001 16.803999999999998
-24.1812 132.078 6.5979599999999996
26.8856 -32.732199999999999 20.1067
-32.296799999999998 -19.987300000000001 8.8277099999999997
27.945399999999999 78.084199999999996 18.329599999999999
27.964600000000001 90.558400000000006 18.090800000000002
-34.101500000000001 109.43899999999999 5.8675100000000002
-12.6685 171.00700000000001 8.7886399999999991
-4.00373 -37.981299999999997 15.234999999999999
-31.507400000000001 -30.1648 9.8806899999999995
27.099499999999999 -14.85 20.738700000000001
27.376000000000001 43.494900000000001 19.677399999999999
27.6099 105.762 18.466200000000001
16.724900000000002 132.93100000000001 15.892200000000001
-17.730899999999998 157.744 8.8499599999999994
-11.522600000000001 -37.547899999999998 14.767099999999999
9.1078700000000001 -36.831899999999997 18.508600000000001
-31.891400000000001 -8.6411899999999999 10.304600000000001
26.752600000000001 18.149799999999999 20.880099999999999
-33.258400000000002 60.989899999999999 8.3558599999999998
-33.303800000000003 71.227699999999999 8.4373400000000007
10.838100000000001 149.476 15.2879
9.7719000000000005 163.16200000000001 14.8315
-32.295400000000001 22.7988 10.3917
-32.823399999999999 37.756100000000004 9.5967300000000009
-17.4648 147.10900000000001 10.661799999999999
-31.9163 9.2460299999999993 11.379300000000001
-33.165799999999997 84.621700000000004 9.4954699999999992
22.587299999999999 124.416 19.4544
-6.07212 171.089 13.0799
24.953499999999998 -8.1157199999999996 23.1783
-32.282899999999998 47.290999999999997 11.220599999999999
25.377300000000002 59.4011 22.203199999999999
-32.268700000000003 117.705 9.9163499999999996
-19.479800000000001 133.643 12.0085
9.7135400000000001 136.91 17.5898
23.897200000000002 -25.658200000000001 24.3337
24.4316 9.4928799999999995 23.571000000000002
25.062200000000001 84.116500000000002 22.176100000000002
25.124600000000001 98.451599999999999 21.997900000000001
15.722099999999999 -38.450000000000003 23.561199999999999
-25.453499999999998 -37.713099999999997 15.758900000000001
24.0715 36.430300000000003 23.7516
-31.698899999999998 54.481099999999998 12.781499999999999
24.4147 71.338200000000001 23.081399999999999
-32.664999999999999 96.197599999999994 11.561999999999999
-28.922699999999999 124.075 12.114000000000001
-13.6846 154.68700000000001 14.1668
5.3211599999999999 154.887 17.8977
-12.7354 163.02600000000001 14.174099999999999
3.7028699999999999 168.44 17.177700000000002
0.16409199999999999 -38.359000000000002 21.369199999999999
-29.709700000000002 -24.738499999999998 15.4274
22.927 -0.49469600000000002 25.127500000000001
23.188099999999999 26.708500000000001 24.685199999999998
23.322299999999998 48.076599999999999 24.2394
-32.223700000000001 104.539 12.617800000000001
24.055 113.343 22.844200000000001
-15.1249 140.536 14.4457
-29.4861 -16.9404 16.026800000000001
-29.566299999999998 -1.8984099999999999 15.887700000000001
-30.3325 17.0198 15.078099999999999
-31.415099999999999 76.931299999999993 13.952299999999999
4.5013699999999996 142.798 19.546900000000001
-12.391999999999999 147.261 16.067799999999998
21.299099999999999 -17.716999999999999 26.675000000000001
21.7883 19.590699999999998 25.979199999999999
-29.891100000000002 27.413900000000002 16.0565
-31.0153 66.871899999999997 14.560499999999999
14.779 129.00999999999999 22.463100000000001
-2.4679199999999999 159.24100000000001 18.642900000000001
-17.154199999999999 -38.4923 20.3508
-29.857500000000002 38.771700000000003 16.507000000000001
-30.997800000000002 88.937399999999997 15.1393
21.865200000000002 90.662000000000006 25.339500000000001
-31.281400000000001 112.10599999999999 14.767099999999999
-1.5988100000000001 148.25299999999999 19.6587
-9.1251899999999999 -38.054600000000001 22.6934
18.2437 -33.188699999999997 27.930299999999999
20.718499999999999 55.7988 26.564499999999999
20.914000000000001 65.680400000000006 26.3871
21.269200000000001 106.062 25.678999999999998
19.0199 121.395 25.0517
-13.4148 133.41399999999999 18.6235
2.0535600000000001 134.79499999999999 21.389099999999999
-7.6618000000000004 138.33699999999999 19.491199999999999
-26.3233 -30.751000000000001 19.774799999999999
-27.5518 -9.0863800000000001 19.251300000000001
-27.765899999999998 5.9422800000000002 18.991800000000001
20.1966 77.950699999999998 26.8462
-23.8386 126.974 17.3505
5.9332200000000004 -38.424700000000001 27.039100000000001
18.3079 -10.0082 28.7302
18.427900000000001 6.1713500000000003 28.5246
18.689699999999998 31.046900000000001 28.217600000000001
18.9133 41.311700000000002 28.012899999999998
-28.459399999999999 47.674100000000003 18.7469
-28.692499999999999 61.1265 18.567
-25.748100000000001 -23.3459 21.409300000000002
-27.039000000000001 20.792999999999999 20.398900000000001
7.3036199999999996 130.34999999999999 24.830200000000001
15.804600000000001 -24.354500000000002 30.176500000000001
-26.290099999999999 12.574400000000001 21.292899999999999
16.652699999999999 15.198 29.595500000000001
-28.3718 82.8536 19.614999999999998
-29.143699999999999 97.7774 18.534500000000001
18.117999999999999 98.967699999999994 28.2242
18.002400000000002 114.65000000000001 27.895399999999999
-27.804099999999998 117.399 19.207000000000001
14.8957 -16.837800000000001 30.4894
15.491899999999999 -1.83975 30.264399999999998
15.903499999999999 23.4818 29.9526
-26.5016 31.835799999999999 21.384599999999999
16.572700000000001 49.039900000000003 29.496099999999998
-27.560500000000001 74.459100000000007 20.4267
-28.268000000000001 105.428 19.938800000000001
-18.208200000000001 128.65799999999999 21.436499999999999
-6.9302400000000004 132.33799999999999 23.5032
-3.55958 -38.140099999999997 28.122900000000001
-23.178000000000001 -16.460000000000001 24.145700000000001
-23.830300000000001 -3.7155100000000001 23.811699999999998
-25.7987 54.664299999999997 22.259799999999998
15.482200000000001 60.855600000000003 29.986499999999999
15.583399999999999 72.200100000000006 29.970800000000001
15.976900000000001 85.539699999999996 29.690799999999999
-20.299900000000001 -34.4086 25.5016
11.0139 -32.653199999999998 31.834800000000001
-24.6998 39.5869 23.3568
-26.276299999999999 89.738900000000001 22.183599999999998
15.1151 107.357 29.953099999999999
12.886200000000001 120.88200000000001 29.089400000000001
-22.494599999999998 5.1029099999999996 24.982500000000002
12.625999999999999 34.610999999999997 31.4724
-25.085799999999999 66.416700000000006 23.128599999999999
-19.252099999999999 -27.156300000000002 27.405200000000001
9.8480500000000006 -10.0876 32.508200000000002
10.2357 3.2791999999999999 32.332099999999997
10.4284 11.617599999999999 32.232500000000002
-21.752300000000002 18.741099999999999 25.949400000000001
-22.209099999999999 27.641200000000001 25.4711
11.984 54.146799999999999 31.7011
12.8445 78.933099999999996 31.299399999999999
12.725099999999999 93.706699999999998 31.221800000000002
-22.552600000000002 120.15000000000001 23.886900000000001
-14.117900000000001 -36.348500000000001 28.7822
7.6023100000000001 -25.144300000000001 33.098999999999997
-19.589300000000001 -9.6730199999999993 27.409099999999999
10.093500000000001 43.627800000000001 32.383800000000001
-21.754200000000001 47.847499999999997 26.086600000000001
-22.850999999999999 77.895200000000003 25.433800000000002
-24.135100000000001 100.236 24.563700000000001
-24.224900000000002 111.407 24.454699999999999
-11.7729 127.377 26.418399999999998
-0.117377 127.417 28.582699999999999
3.3473700000000002 -33.9208 33.040599999999998
-17.6037 -19.453900000000001 28.657800000000002
5.6099199999999998 -17.025400000000001 33.413200000000003
-17.561499999999999 -2.0351599999999999 28.669599999999999
-18.481000000000002 11.325900000000001 28.217199999999998
7.5617900000000002 20.473199999999999 33.053100000000001
-20.620000000000001 56.251800000000003 27.0563
9.7188999999999997 66.996300000000005 32.541499999999999
10.052899999999999 114.663 31.9344
4.45627 -5.49899 33.517099999999999
6.1713399999999998 28.795500000000001 33.362299999999998
-18.1721 34.324599999999997 28.4102
-21.2896 86.007800000000003 27.007899999999999
9.5207999999999995 101.416 32.529400000000003
5.3812100000000003 120.744 31.6404
-8.6272099999999998 -32.550400000000003 31.970199999999998
-1.52654 -28.106200000000001 33.608499999999999
-11.8123 -25.264199999999999 31.552099999999999
-2.1545000000000001 -20.650500000000001 33.565600000000003
-12.0863 -14.1342 31.456299999999999
-12.538399999999999 -6.5951899999999997 31.303999999999998
1.7862899999999999 2.4668199999999998 33.826900000000002
-13.585699999999999 5.3990299999999998 30.706199999999999
2.7397800000000001 13.0913 33.761200000000002
-15.142200000000001 18.479299999999999 30.302600000000002
5.2037100000000001 37.865200000000002 33.575499999999998
-16.729399999999998 42.920099999999998 29.5717
5.1394099999999998 50.508200000000002 33.542299999999997
5.8187300000000004 58.748800000000003 33.511699999999998
-18.593800000000002 65.179699999999997 28.594899999999999
6.4905499999999998 74.243499999999997 33.411099999999998
7.2880900000000004 84.919600000000003 33.213900000000002
-2.4897 -13.1509 33.735999999999997
-5.5175700000000001 -4.7055600000000002 33.308900000000001
0.789547 22.790299999999998 33.963299999999997
-13.3324 25.5532 31.153400000000001
-15.4846 50.271099999999997 30.3218
-17.316299999999998 73.341999999999999 29.467400000000001
5.53003 92.4666 33.464700000000001
-18.8066 94.143799999999999 28.676100000000002
-19.645099999999999 106.14100000000001 28.2073
6.07193 108.663 33.415500000000002
-15.3588 119.809 29.0398
-6.3899600000000003 4.0173399999999999 33.1509
-10.0166 12.3346 32.3093
-5.8560600000000003 19.733499999999999 33.368000000000002
-6.8784200000000002 27.971699999999998 33.223199999999999
-11.801500000000001 33.119700000000002 31.822399999999998
-1.55419 33.255200000000002 33.886800000000001
-1.7718700000000001 40.8155 33.911099999999998
-13.427899999999999 57.707700000000003 31.331299999999999
1.8139099999999999 66.197699999999998 34.0291
-2.19313 120.82299999999999 32.219999999999999
-8.3485200000000006 44.395499999999998 32.931600000000003
-5.5345199999999997 51.173299999999998 33.6509
-5.4654400000000001 58.791600000000003 33.643799999999999
-11.4909 65.288799999999995 32.156100000000002
-10.446899999999999 72.942099999999996 32.444400000000002
-1.93011 72.827100000000002 34.069400000000002
-0.61733199999999999 80.188999999999993 34.184800000000003
-14.5283 81.745900000000006 31.033100000000001
0.031179999999999999 87.665700000000001 34.142699999999998
1.41567 99.940899999999999 34.038400000000003
-14.8332 112.38200000000001 30.658899999999999
-8.1569099999999999 86.299999999999997 33.283299999999997
-4.4336000000000002 93.963399999999993 33.8857
-11.134399999999999 97.477099999999993 32.269100000000002
-13.376899999999999 104.923 31.577500000000001
-1.7940400000000001 107.42100000000001 34.105600000000003
-6.9868600000000001 113.992 33.4343
