# .PCD v.7 - Point Cloud Data file format
VERSION .7
FIELDS x y z rgb
SIZE 4 4 4 4
TYPE F F F F
COUNT 1 1 1 1
WIDTH 1314
HEIGHT 1
VIEWPOINT 0 0 0 1 0 0 0
POINTS 1314
DATA ascii
67.88571 75.29143 648 2.341769e-38
69.01334 75.17524 647 2.341769e-38
70.24571 75.17524 647 2.341769e-38
71.4781 75.17524 647 2.341769e-38
72.5981 75.05905 646 2.341769e-38
73.71429 74.94286 645.0001 2.341769e-38
74.94286 74.94286 645.0001 2.341769e-38
76.17143 74.94286 645.0001 2.341769e-38
77.40001 74.94286 645.0001 2.341769e-38
78.62858 74.94286 645.0001 2.341769e-38
79.85715 74.94286 645.0001 2.341769e-38
81.08572 74.94286 645.0001 2.341769e-38
82.56953 75.17524 647 2.341769e-38
83.8019 75.17524 647 2.341769e-38
85.16572 75.29143 648 2.341769e-38
86.66667 75.52382 650.0001 2.314218e-38
88.04 75.64 651 2.286668e-38
89.41714 75.7562 652 2.277161e-38
90.65904 75.7562 652 2.277053e-38
92.04191 75.87238 653.0001 2.267725e-38
93.57143 76.10477 655.0001 2.258434e-38
94.96381 76.22095 656 2.25829e-38
96.50667 76.45334 658.0001 2.267474e-38
97.76001 76.45334 658.0001 2.203189e-38
99.61525 76.91811 662.0001 2.129721e-38
101.3333 77.26667 665 2.000829e-38
102.7543 77.38286 666 1.881477e-38
104.1791 77.49905 667.0001 1.623475e-38
105.7657 77.73143 669 1.365974e-38
107.2 77.84763 670 1.300432e-38
109.1238 78.31239 674 1.235173e-38
110.4076 78.31239 674 1.060788e-38
111.8571 78.42857 675 8.908515e-39
113.1429 78.42857 675 8.27459e-39
114.5981 78.54477 676.0001 7.643954e-39
35.30667 78.17905 662.0001 2.323402e-38
36.51238 78.06095 661 2.314146e-38
37.77143 78.06095 661 2.314146e-38
38.97143 77.94286 660 2.32333e-38
40.22857 77.94286 660 2.32333e-38
41.29714 77.58857 657 2.32333e-38
42.54857 77.58857 657 2.32333e-38
43.73333 77.47047 656 2.32333e-38
44.91429 77.35238 655.0001 2.32333e-38
46.02095 77.1162 653.0001 2.32333e-38
47.26477 77.1162 653.0001 2.32333e-38
48.43429 76.99809 652 2.32333e-38
49.67619 76.99809 652 2.32333e-38
50.91809 76.99809 652 2.32333e-38
52.08 76.88 651 2.32333e-38
53.32 76.88 651 2.32333e-38
54.56 76.88 651 2.323366e-38
55.71429 76.76191 650.0001 2.332549e-38
56.77714 76.52571 648 2.332549e-38
58.01143 76.52571 648 2.332549e-38
59.24571 76.52571 648 2.332549e-38
60.48 76.52571 648 2.332549e-38
61.71428 76.52571 648 2.332549e-38
62.94857 76.52571 648 2.332549e-38
64.08381 76.40762 647 2.332549e-38
65.31619 76.40762 647 2.332549e-38
66.54857 76.40762 647 2.332549e-38
67.78096 76.40762 647 2.341769e-38
68.90667 76.28953 646 2.341769e-38
70.02857 76.17143 645.0001 2.341769e-38
71.25714 76.17143 645.0001 2.341769e-38
72.37334 76.05334 644.0001 2.341769e-38
73.6 76.05334 644.0001 2.341769e-38
74.82668 76.05334 644.0001 2.341769e-38
76.05334 76.05334 644.0001 2.341769e-38
77.28001 76.05334 644.0001 2.341769e-38
78.50667 76.05334 644.0001 2.341769e-38
79.73335 76.05334 644.0001 2.341769e-38
81.08572 76.17143 645.0001 2.341769e-38
82.44191 76.28953 646 2.341769e-38
83.8019 76.40762 647 2.341769e-38
85.16572 76.52571 648 2.341625e-38
86.4 76.52571 648 2.28638e-38
88.04 76.88 651 2.240211e-38
89.41714 76.99809 652 2.221378e-38
90.65904 76.99809 652 2.212624e-38
92.04191 77.1162 653.0001 2.221557e-38
93.57143 77.35238 655.0001 2.23996e-38
94.96381 77.47047 656 2.267367e-38
96.36 77.58857 657 2.304172e-38
97.76001 77.70667 658.0001 2.221878e-38
99.61525 78.17905 662.0001 2.14737e-38
101.4857 78.65143 666 1.853102e-38
102.7543 78.65143 666 1.558114e-38
104.4914 79.00572 669 1.042901e-38
105.7657 79.00572 669 5.370506e-39
107.36 79.24191 671 6.368841e-39
108.8 79.36001 672.0001 7.484447e-39
110.4076 79.59619 674 8.036843e-39
111.6914 79.59619 674 8.63301e-39
113.1429 79.71429 675 8.370013e-39
35.25333 79.32 661 2.323366e-38
36.45714 79.2 660 2.314146e-38
37.71429 79.2 660 2.314146e-38
38.85334 78.96001 658.0001 2.32333e-38
40.10667 78.96001 658.0001 2.32333e-38
41.29714 78.84 657 2.32333e-38
42.48381 78.72 656 2.32333e-38
43.73333 78.72 656 2.32333e-38
44.91429 78.60001 655.0001 2.32333e-38
46.02095 78.36001 653.0001 2.32333e-38
47.19238 78.24 652 2.32333e-38
48.43429 78.24 652 2.32333e-38
49.67619 78.24 652 2.32333e-38
50.84 78.12 651 2.32333e-38
52.08 78.12 651 2.32333e-38
53.2381 78 650.0001 2.323366e-38
54.47619 78 650.0001 2.323366e-38
55.71429 78 650.0001 2.332549e-38
56.68952 77.64001 647 2.332549e-38
57.92191 77.64001 647 2.332549e-38
59.15429 77.64001 647 2.332549e-38
60.38667 77.64001 647 2.332549e-38
61.61905 77.64001 647 2.332549e-38
62.75429 77.52 646 2.332549e-38
63.98477 77.52 646 2.332549e-38
65.21524 77.52 646 2.332549e-38
66.44572 77.52 646 2.33255e-38
67.57143 77.40001 645.0001 2.341769e-38
68.8 77.40001 645.0001 2.341769e-38
69.92001 77.28001 644.0001 2.341769e-38
71.14668 77.28001 644.0001 2.341769e-38
72.37334 77.28001 644.0001 2.341769e-38
73.6 77.28001 644.0001 2.341769e-38
74.82668 77.28001 644.0001 2.341769e-38
76.05334 77.28001 644.0001 2.341769e-38
77.28001 77.28001 644.0001 2.341769e-38
78.50667 77.28001 644.0001 2.341769e-38
79.73335 77.28001 644.0001 2.341769e-38
80.96001 77.28001 644.0001 2.341769e-38
82.44191 77.52 646 2.341769e-38
83.67238 77.52 646 2.314039e-38
85.03429 77.64001 647 2.286416e-38
86.4 77.75999 648 2.277017e-38
88.04 78.12 651 2.258326e-38
89.28 78.12 651 2.267653e-38
90.65904 78.24 652 2.277124e-38
91.90096 78.24 652 2.194293e-38
93.28572 78.36001 653.0001 2.120825e-38
94.81905 78.60001 655.0001 1.964346e-38
96.21333 78.72 656 1.80826e-38
97.76001 78.96001 658.0001 1.531389e-38
100.2171 79.92 666 1.254951e-38
101.4857 79.92 666 1.0612e-38
102.9086 80.04001 667.0001 8.763065e-39
104.4914 80.28001 669 7.019243e-39
105.7657 80.28001 669 5.265029e-39
107.36 80.52 671 8.489304e-39
109.1238 80.88 674 1.161991e-38
110.4076 80.88 674 9.873557e-39
112.0229 81.12001 676.0001 8.081999e-39
113.3105 81.12001 676.0001 8.000519e-39
33.84 80.21334 658.0001 2.341769e-38
35.2 80.45715 660 2.332513e-38
36.34667 80.21334 658.0001 2.32333e-38
37.6 80.21334 658.0001 2.32333e-38
38.79428 80.09143 657 2.32333e-38
40.04572 80.09143 657 2.32333e-38
41.23428 79.96953 656 2.32333e-38
42.48381 79.96953 656 2.32333e-38
43.66667 79.84762 655.0001 2.32333e-38
44.77715 79.60381 653.0001 2.32333e-38
45.95048 79.48191 652 2.32333e-38
47.19238 79.48191 652 2.32333e-38
48.36 79.36 651 2.32333e-38
49.6 79.36 651 2.32333e-38
50.84 79.36 651 2.32333e-38
52 79.2381 650.0001 2.323366e-38
53.07428 78.99428 648 2.332549e-38
54.30857 78.99428 648 2.332549e-38
55.54286 78.99428 648 2.332549e-38
56.77714 78.99428 648 2.332549e-38
57.92191 78.87238 647 2.332549e-38
59.15429 78.87238 647 2.332549e-38
60.29333 78.75047 646 2.332549e-38
61.52381 78.75047 646 2.332549e-38
62.75429 78.75047 646 2.332549e-38
63.88572 78.62858 645.0001 2.332549e-38
65.11429 78.62858 645.0001 2.341733e-38
66.34286 78.62858 645.0001 2.341769e-38
67.46667 78.50667 644.0001 2.341769e-38
68.69334 78.50667 644.0001 2.341769e-38
69.92001 78.50667 644.0001 2.341769e-38
70.92571 78.26286 642 2.341769e-38
72.14857 78.26286 642 2.341769e-38
73.37143 78.26286 642 2.341769e-38
74.59429 78.26286 642 2.341769e-38
75.81715 78.26286 642 2.341769e-38
77.04 78.26286 642 2.341769e-38
78.50667 78.50667 644.0001 2.341769e-38
79.73335 78.50667 644.0001 2.341769e-38
80.96001 78.50667 644.0001 2.341769e-38
82.31429 78.62858 645.0001 2.341517e-38
83.67238 78.75047 646 2.286093e-38
85.03429 78.87238 647 2.240283e-38
86.4 78.99428 648 2.258578e-38
87.90477 79.2381 650.0001 2.286129e-38
89.28 79.36 651 2.313859e-38
90.65904 79.48191 652 2.34123e-38
91.90096 79.48191 652 2.175926e-38
93.28572 79.60381 653.0001 2.009438e-38
94.52953 79.60381 653.0001 1.659781e-38
96.06667 79.84762 655.0001 1.309872e-38
98.20572 80.57905 661 8.30999e-39
100.2171 81.18858 666 3.62674e-39
101.4857 81.18858 666 2.791612e-39
102.9086 81.31048 667.0001 1.968666e-39
104.4914 81.55428 669 3.623124e-39
105.7657 81.55428 669 5.279388e-39
107.52 81.92001 672.0001 1.052118e-38
109.1238 82.16381 674 1.584686e-38
110.7352 82.40762 676.0001 1.171132e-38
112.3543 82.65143 678.0001 7.622809e-39
113.6457 82.65143 678.0001 7.723573e-39
32.53714 81.34286 657 2.268301e-38
33.84 81.46667 658.0001 2.332585e-38
35.09334 81.46667 658.0001 2.32333e-38
36.34667 81.46667 658.0001 2.32333e-38
37.54286 81.34286 657 2.32333e-38
38.79428 81.34286 657 2.32333e-38
39.98476 81.21905 656 2.32333e-38
41.17143 81.09524 655.0001 2.32333e-38
42.41905 81.09524 655.0001 2.32333e-38
43.53334 80.84763 653.0001 2.32333e-38
44.77715 80.84763 653.0001 2.32333e-38
45.95048 80.72381 652 2.32333e-38
47.12 80.6 651 2.32333e-38
48.36 80.6 651 2.32333e-38
49.52381 80.4762 650.0001 2.32333e-38
50.76191 80.4762 650.0001 2.323366e-38
51.84 80.22857 648 2.323366e-38
53.07428 80.22857 648 2.332549e-38
54.22476 80.10476 647 2.332549e-38
55.37143 79.98096 646 2.332549e-38
56.51429 79.85715 645.0001 2.332549e-38
57.74286 79.85715 645.0001 2.332549e-38
58.97143 79.85715 645.0001 2.332549e-38
60.2 79.85715 645.0001 2.332549e-38
61.42857 79.85715 645.0001 2.332549e-38
62.65715 79.85715 645.0001 2.332549e-38
63.88572 79.85715 645.0001 2.33255e-38
65.01334 79.73335 644.0001 2.341769e-38
66.24001 79.73335 644.0001 2.341769e-38
67.46667 79.73335 644.0001 2.341769e-38
68.48 79.48572 642 2.341769e-38
69.70286 79.48572 642 2.341769e-38
70.92571 79.48572 642 2.341769e-38
72.14857 79.48572 642 2.341769e-38
73.37143 79.48572 642 2.341769e-38
74.59429 79.48572 642 2.341769e-38
75.81715 79.48572 642 2.341769e-38
77.04 79.48572 642 2.341769e-38
78.26286 79.48572 642 2.323402e-38
79.48572 79.48572 642 2.314218e-38
80.96001 79.73335 644.0001 2.314003e-38
82.31429 79.85715 645.0001 2.304603e-38
83.54286 79.85715 645.0001 2.295348e-38
85.03429 80.10476 647 2.286344e-38
86.4 80.22857 648 2.221952e-38
87.90477 80.4762 650.0001 2.157631e-38
89.28 80.6 651 1.973458e-38
90.65904 80.72381 652 1.79879e-38
91.90096 80.72381 652 1.595568e-38
93.28572 80.84763 653.0001 1.401493e-38
94.52953 80.84763 653.0001 1.235973e-38
96.06667 81.09524 655.0001 1.078596e-38
98.20572 81.8381 661 8.310696e-39
100.0667 82.33334 665 5.832213e-39
101.4857 82.45714 666 7.209385e-39
102.9086 82.58096 667.0001 8.678747e-39
104.4914 82.82858 669 1.033537e-38
105.7657 82.82858 669 1.20824e-38
107.52 83.2 672.0001 1.428646e-38
109.1238 83.44762 674 1.650656e-38
111.2267 84.06667 679 1.161337e-38
112.52 84.06667 679 6.704441e-39
113.8133 84.06667 679 7.266545e-39
31.33333 82.72 658.0001 2.341765e-38
32.58667 82.72 658.0001 2.332585e-38
33.78857 82.59428 657 2.332549e-38
35.04 82.59428 657 2.32333e-38
36.29143 82.59428 657 2.32333e-38
37.54286 82.59428 657 2.32333e-38
38.73524 82.46857 656 2.32333e-38
39.92381 82.34286 655.0001 2.32333e-38
41.04572 82.09144 653.0001 2.32333e-38
42.28952 82.09144 653.0001 2.32333e-38
43.46667 81.96571 652 2.32333e-38
44.70857 81.96571 652 2.32333e-38
45.88 81.84 651 2.32333e-38
47.12 81.84 651 2.323366e-38
48.28572 81.71429 650.0001 2.332549e-38
49.52381 81.71429 650.0001 2.332549e-38
50.60571 81.46286 648 2.332549e-38
51.84 81.46286 648 2.332549e-38
52.99238 81.33714 647 2.332549e-38
54.22476 81.33714 647 2.332549e-38
55.28572 81.08572 645.0001 2.332549e-38
56.51429 81.08572 645.0001 2.332549e-38
57.65334 80.96001 644.0001 2.332549e-38
58.88 80.96001 644.0001 2.332549e-38
60.10667 80.96001 644.0001 2.332549e-38
61.33334 80.96001 644.0001 2.332549e-38
62.56001 80.96001 644.0001 2.341733e-38
63.78667 80.96001 644.0001 2.341769e-38
64.81143 80.70857 642 2.341769e-38
66.03429 80.70857 642 2.341769e-38
67.15238 80.58286 641.0001 2.341769e-38
68.37334 80.58286 641.0001 2.341769e-38
69.59428 80.58286 641.0001 2.341769e-38
70.81525 80.58286 641.0001 2.341769e-38
72.03619 80.58286 641.0001 2.341769e-38
73.37143 80.70857 642 2.341769e-38
74.59429 80.70857 642 2.341769e-38
75.81715 80.70857 642 2.341769e-38
77.04 80.70857 642 2.341769e-38
78.26286 80.70857 642 2.314003e-38
79.48572 80.70857 642 2.2956e-38
80.96001 80.96001 644.0001 2.286273e-38
82.18667 80.96001 644.0001 2.277053e-38
83.54286 81.08572 645.0001 2.304532e-38
84.90286 81.21143 646 2.341337e-38
86.4 81.46286 648 2.185324e-38
88.04 81.84 651 2.027949e-38
89.28 81.84 651 1.64163e-38
90.65904 81.96571 652 1.255095e-38
92.04191 82.09144 653.0001 1.024465e-38
93.28572 82.09144 653.0001 7.952345e-39
94.81905 82.34286 655.0001 8.22534e-39
96.06667 82.34286 655.0001 8.591594e-39
97.76001 82.72 658.0001 8.315357e-39
99.76572 83.34858 663.0001 8.044877e-39
101.4857 83.72572 666 1.172332e-38
102.9086 83.85143 667.0001 1.548893e-38
104.1791 83.85143 667.0001 1.714914e-38
105.7657 84.10286 669 1.888035e-38
108 84.85715 675 1.795838e-38
110.0952 85.48571 680 1.713109e-38
111.3905 85.48571 680 1.151831e-38
112.6857 85.48571 680 5.877927e-39
113.9809 85.48571 680 6.810601e-39
31.33333 83.97334 658.0001 2.341768e-38
32.58667 83.97334 658.0001 2.332585e-38
33.78857 83.84571 657 2.32333e-38
35.04 83.84571 657 2.32333e-38
36.29143 83.84571 657 2.32333e-38
37.48571 83.7181 656 2.32333e-38
38.67619 83.59048 655.0001 2.32333e-38
39.80191 83.33524 653.0001 2.32333e-38
41.04572 83.33524 653.0001 2.32333e-38
42.22476 83.20762 652 2.32333e-38
43.46667 83.20762 652 2.32333e-38
44.64 83.08 651 2.32333e-38
45.88 83.08 651 2.323366e-38
47.04762 82.95238 650.0001 2.323366e-38
48.28572 82.95238 650.0001 2.332549e-38
49.37143 82.69714 648 2.332549e-38
50.60571 82.69714 648 2.332549e-38
51.84 82.69714 648 2.332549e-38
52.99238 82.56953 647 2.332549e-38
54.14096 82.44191 646 2.332549e-38
55.28572 82.31429 645.0001 2.332549e-38
56.42667 82.18667 644.0001 2.332549e-38
57.65334 82.18667 644.0001 2.332549e-38
58.88 82.18667 644.0001 2.332549e-38
59.92 81.93143 642 2.332549e-38
61.14286 81.93143 642 2.33255e-38
62.36572 81.93143 642 2.341769e-38
63.58857 81.93143 642 2.341769e-38
64.81143 81.93143 642 2.341769e-38
65.93143 81.80381 641.0001 2.341769e-38
67.04762 81.67619 640.0001 2.341769e-38
68.26667 81.67619 640.0001 2.341769e-38
69.48572 81.67619 640.0001 2.341769e-38
70.70477 81.67619 640.0001 2.341769e-38
72.03619 81.80381 641.0001 2.341769e-38
73.25715 81.80381 641.0001 2.341769e-38
74.4781 81.80381 641.0001 2.341769e-38
75.69905 81.80381 641.0001 2.323402e-38
77.04 81.93143 642 2.314218e-38
78.26286 81.93143 642 2.313931e-38
79.48572 81.93143 642 2.313931e-38
80.96001 82.18667 644.0001 2.304747e-38
82.18667 82.18667 644.0001 2.304783e-38
83.54286 82.31429 645.0001 2.102494e-38
85.03429 82.56953 647 1.900491e-38
86.4 82.69714 648 1.623261e-38
88.04 83.08 651 1.346285e-38
89.41714 83.20762 652 1.208496e-38
90.65904 83.20762 652 1.079172e-38
92.04191 83.33524 653.0001 9.786893e-39
93.57143 83.59048 655.0001 8.779935e-39
94.81905 83.59048 655.0001 1.116874e-38
96.21333 83.7181 656 1.355717e-38
98.20572 84.35619 661 1.355966e-38
99.76572 84.61143 663.0001 1.365653e-38
101.3333 84.86667 665 1.521452e-38
102.7543 84.99429 666 1.677643e-38
104.1791 85.12191 667.0001 1.741424e-38
105.7657 85.37715 669 1.805487e-38
107.84 86.01524 674 1.768532e-38
110.4191 87.03619 682.0001 1.740549e-38
111.7181 87.03619 682.0001 1.160836e-38
113.0172 87.03619 682.0001 5.786099e-39
113.9809 86.78095 680 6.719129e-39
30.03428 85.09715 657 1.836099e-38
31.28572 85.09715 657 2.341768e-38
32.53714 85.09715 657 2.332585e-38
33.78857 85.09715 657 2.32333e-38
35.04 85.09715 657 2.32333e-38
36.23619 84.96762 656 2.32333e-38
37.42857 84.8381 655.0001 2.32333e-38
38.5581 84.57905 653.0001 2.32333e-38
39.80191 84.57905 653.0001 2.32333e-38
40.98286 84.44952 652 2.32333e-38
42.22476 84.44952 652 2.32333e-38
43.46667 84.44952 652 2.32333e-38
44.64 84.32 651 2.323366e-38
45.88 84.32 651 2.332549e-38
47.04762 84.19048 650.0001 2.332549e-38
48.13714 83.93143 648 2.332549e-38
49.37143 83.93143 648 2.332549e-38
50.52762 83.8019 647 2.332549e-38
51.76 83.8019 647 2.332549e-38
52.91048 83.67238 646 2.332549e-38
54.14096 83.67238 646 2.332549e-38
55.2 83.41334 644.0001 2.332549e-38
56.42667 83.41334 644.0001 2.332549e-38
57.65334 83.41334 644.0001 2.332549e-38
58.69714 83.15429 642 2.332549e-38
59.92 83.15429 642 2.341733e-38
61.14286 83.15429 642 2.341769e-38
62.36572 83.15429 642 2.341769e-38
63.48952 83.02477 641.0001 2.341769e-38
64.71047 83.02477 641.0001 2.341769e-38
65.82858 82.89524 640.0001 2.341769e-38
66.94286 82.76572 639.0001 2.341769e-38
68.26667 82.89524 640.0001 2.341769e-38
69.48572 82.89524 640.0001 2.341769e-38
70.59429 82.76572 639.0001 2.341769e-38
71.92381 82.89524 640.0001 2.341769e-38
73.14286 82.89524 640.0001 2.341769e-38
74.36192 82.89524 640.0001 2.341697e-38
75.58096 82.89524 640.0001 2.31411e-38
76.92001 83.02477 641.0001 2.286308e-38
78.14096 83.02477 641.0001 2.313392e-38
79.48572 83.15429 642 2.341517e-38
80.96001 83.41334 644.0001 2.332549e-38
82.18667 83.41334 644.0001 2.331723e-38
83.54286 83.54286 645.0001 1.890302e-38
85.03429 83.8019 647 1.457419e-38
86.66667 84.19048 650.0001 1.061019e-38
88.04 84.32 651 6.666654e-39
89.41714 84.44952 652 7.860161e-39
90.7981 84.57905 653.0001 9.054015e-39
92.04191 84.57905 653.0001 9.330589e-39
93.57143 84.8381 655.0001 9.699006e-39
94.81905 84.8381 655.0001 1.411787e-38
96.21333 84.96762 656 1.861493e-38
98.20572 85.61524 661 1.88915e-38
99.76572 85.87429 663.0001 1.925415e-38
101.3333 86.13334 665 1.860446e-38
102.7543 86.26286 666 1.804664e-38
104.1791 86.39239 667.0001 1.766819e-38
105.9238 86.78095 670 1.732092e-38
108 87.42857 675 1.750708e-38
110.581 88.46477 683 1.768352e-38
111.7181 88.33524 682.0001 1.169982e-38
113.0172 88.33524 682.0001 5.694256e-39
114.3162 88.33524 682.0001 6.629088e-39
30.03428 86.34857 657 1.964741e-38
31.28572 86.34857 657 2.341769e-38
32.53714 86.34857 657 2.332514e-38
33.78857 86.34857 657 2.32333e-38
34.98667 86.21714 656 2.32333e-38
36.18095 86.08572 655.0001 2.32333e-38
37.31429 85.82287 653.0001 2.32333e-38
38.5581 85.82287 653.0001 2.32333e-38
39.80191 85.82287 653.0001 2.32333e-38
40.98286 85.69143 652 2.32333e-38
42.16 85.56001 651 2.32333e-38
43.4 85.56001 651 2.323366e-38
44.57143 85.42857 650.0001 2.323366e-38
45.80952 85.42857 650.0001 2.332549e-38
46.90286 85.16572 648 2.332549e-38
48.13714 85.16572 648 2.332549e-38
49.29524 85.03429 647 2.332549e-38
50.52762 85.03429 647 2.332549e-38
51.76 85.03429 647 2.332549e-38
52.91048 84.90286 646 2.332549e-38
53.97334 84.64001 644.0001 2.332549e-38
55.2 84.64001 644.0001 2.332549e-38
56.25143 84.37714 642 2.332549e-38
57.47429 84.37714 642 2.332549e-38
58.69714 84.37714 642 2.33255e-38
59.82667 84.24572 641.0001 2.341769e-38
61.04762 84.24572 641.0001 2.341769e-38
62.26857 84.24572 641.0001 2.341769e-38
63.39048 84.11429 640.0001 2.341769e-38
64.60953 84.11429 640.0001 2.341769e-38
65.72572 83.98286 639.0001 2.341769e-38
66.94286 83.98286 639.0001 2.341769e-38
68.16 83.98286 639.0001 2.341769e-38
69.37714 83.98286 639.0001 2.341769e-38
70.59429 83.98286 639.0001 2.341769e-38
71.81144 83.98286 639.0001 2.341769e-38
73.14286 84.11429 640.0001 2.32333e-38
74.36192 84.11429 640.0001 2.314146e-38
75.58096 84.11429 640.0001 2.313967e-38
76.92001 84.24572 641.0001 2.31368e-38
78.26286 84.37714 642 2.277053e-38
79.48572 84.37714 642 2.240749e-38
80.96001 84.64001 644.0001 1.918285e-38
82.18667 84.64001 644.0001 1.605468e-38
83.67238 84.90286 646 1.420612e-38
85.16572 85.16572 648 1.235183e-38
86.66667 85.42857 650.0001 1.024572e-38
88.17524 85.69143 652 8.230002e-39
89.41714 85.69143 652 8.4126e-39
90.7981 85.82287 653.0001 8.598063e-39
92.04191 85.82287 653.0001 1.0066e-38
93.57143 86.08572 655.0001 1.153607e-38
94.81905 86.08572 655.0001 1.484466e-38
96.21333 86.21714 656 1.824543e-38
98.35429 87.00572 662.0001 1.778265e-38
99.76572 87.13715 663.0001 1.732269e-38
101.3333 87.4 665 1.80548e-38
102.9086 87.66286 667.0001 1.886414e-38
104.1791 87.66286 667.0001 1.740665e-38
105.4495 87.66286 667.0001 1.594913e-38
108 88.71429 675 1.557714e-38
110.4191 89.63429 682.0001 1.520937e-38
111.3905 89.37143 680 1.031905e-38
112.6857 89.37143 680 5.51058e-39
114.3162 89.63429 682.0001 6.445418e-39
28.78286 87.6 657 1.852952e-38
30.03428 87.6 657 2.093777e-38
31.28572 87.6 657 2.341589e-38
32.53714 87.6 657 2.332226e-38
33.78857 87.6 657 2.32333e-38
34.98667 87.46667 656 2.323366e-38
36.18095 87.33334 655.0001 2.32333e-38
37.31429 87.06667 653.0001 2.32333e-38
38.5581 87.06667 653.0001 2.32333e-38
39.74096 86.93333 652 2.323366e-38
40.92 86.8 651 2.332549e-38
42.16 86.8 651 2.332549e-38
43.2 86.4 648 2.332549e-38
44.43429 86.4 648 2.332549e-38
45.66857 86.4 648 2.332549e-38
46.90286 86.4 648 2.332549e-38
48.06286 86.26667 647 2.332549e-38
49.21905 86.13334 646 2.332549e-38
50.44952 86.13334 646 2.332549e-38
51.68 86.13334 646 2.332549e-38
52.82857 86 645.0001 2.332549e-38
53.97334 85.86668 644.0001 2.332549e-38
55.02857 85.60001 642 2.332549e-38
56.25143 85.60001 642 2.332549e-38
57.38476 85.46667 641.0001 2.332549e-38
58.60572 85.46667 641.0001 2.332585e-38
59.73334 85.33334 640.0001 2.341769e-38
60.95238 85.33334 640.0001 2.341769e-38
62.07429 85.2 639.0001 2.341769e-38
63.29143 85.2 639.0001 2.341769e-38
64.50858 85.2 639.0001 2.341769e-38
65.72572 85.2 639.0001 2.341769e-38
66.8381 85.06667 638 2.341769e-38
68.05334 85.06667 638 2.341769e-38
69.26857 85.06667 638 2.341769e-38
70.48381 85.06667 638 2.341769e-38
71.81144 85.2 639.0001 2.341769e-38
73.02858 85.2 639.0001 2.313823e-38
74.36192 85.33334 640.0001 2.295564e-38
75.58096 85.33334 640.0001 2.313931e-38
76.92001 85.46667 641.0001 2.34123e-38
78.14096 85.46667 641.0001 2.240426e-38
79.48572 85.60001 642 2.138258e-38
80.96001 85.86668 644.0001 1.503302e-38
82.44191 86.13334 646 8.784614e-39
83.67238 86.13334 646 9.513914e-39
85.16572 86.4 648 1.024896e-38
86.8 86.8 651 9.974524e-39
88.04 86.8 651 9.79085e-39
89.41714 86.93333 652 8.962893e-39
90.65904 86.93333 652 8.136006e-39
92.04191 87.06667 653.0001 1.070703e-38
93.71429 87.46667 656 1.337093e-38
95.25334 87.73334 658.0001 1.557207e-38
96.94666 88.13333 661 1.785863e-38
98.35429 88.26667 662.0001 1.665114e-38
99.76572 88.40001 663.0001 1.548707e-38
101.3333 88.66667 665 1.760862e-38
102.9086 88.93334 667.0001 1.971724e-38
104.4914 89.2 669 1.714549e-38
105.7657 89.2 669 1.456011e-38
107.36 89.46667 671 1.363496e-38
110.4191 90.93333 682.0001 1.281948e-38
111.3905 90.66666 680 9.031198e-39
112.6857 90.66666 680 5.342703e-39
28.82667 88.98667 658.0001 2.074543e-38
30.03428 88.85143 657 2.203765e-38
31.28572 88.85143 657 2.323114e-38
32.53714 88.85143 657 2.323078e-38
33.78857 88.85143 657 2.314146e-38
34.93333 88.58096 655.0001 2.314146e-38
36.07048 88.31048 653.0001 2.32333e-38
37.25714 88.17524 652 2.32333e-38
38.49905 88.17524 652 2.323366e-38
39.68 88.04 651 2.323366e-38
40.92 88.04 651 2.332549e-38
42.09524 87.90477 650.0001 2.332549e-38
43.2 87.63428 648 2.332549e-38
44.43429 87.63428 648 2.332549e-38
45.66857 87.63428 648 2.332549e-38
46.83047 87.49905 647 2.332549e-38
48.06286 87.49905 647 2.332549e-38
49.21905 87.36381 646 2.332549e-38
50.37143 87.22858 645.0001 2.332549e-38
51.6 87.22858 645.0001 2.332549e-38
52.74667 87.09334 644.0001 2.332549e-38
53.80572 86.82286 642 2.332549e-38
55.02857 86.82286 642 2.332549e-38
56.16381 86.68762 641.0001 2.33255e-38
57.29524 86.55239 640.0001 2.332585e-38
58.51429 86.55239 640.0001 2.332585e-38
59.64001 86.41715 639.0001 2.341769e-38
60.85715 86.41715 639.0001 2.341769e-38
62.07429 86.41715 639.0001 2.341769e-38
63.19238 86.28191 638 2.341769e-38
64.40762 86.28191 638 2.341769e-38
65.62286 86.28191 638 2.341769e-38
66.8381 86.28191 638 2.341769e-38
68.05334 86.28191 638 2.341769e-38
69.26857 86.28191 638 2.341769e-38
70.59429 86.41715 639.0001 2.332585e-38
71.81144 86.41715 639.0001 2.323401e-38
73.14286 86.55239 640.0001 2.313931e-38
74.36192 86.55239 640.0001 2.304747e-38
75.69905 86.68762 641.0001 2.240355e-38
77.04 86.82286 642 2.166742e-38
78.26286 86.82286 642 1.890051e-38
79.73335 87.09334 644.0001 1.622723e-38
80.96001 87.09334 644.0001 1.337781e-38
82.31429 87.22858 645.0001 1.052016e-38
83.93143 87.63428 648 1.052556e-38
85.42857 87.90477 650.0001 1.053057e-38
86.8 88.04 651 9.790861e-39
88.17524 88.17524 652 9.148004e-39
89.5543 88.31048 653.0001 7.85943e-39
91.07619 88.58096 655.0001 6.664476e-39
92.32381 88.58096 655.0001 1.070881e-38
93.85714 88.85143 657 1.475558e-38
95.25334 88.98667 658.0001 1.465649e-38
96.94666 89.39238 661 1.463175e-38
98.35429 89.52763 662.0001 1.391144e-38
99.76572 89.66286 663.0001 1.328696e-38
101.3333 89.93333 665 1.393061e-38
102.6 89.93333 665 1.457772e-38
104.8038 90.74477 671 1.235246e-38
106.0819 90.74477 671 1.022267e-38
107.36 90.74477 671 1.189366e-38
28.82667 90.24001 658.0001 2.304241e-38
30.03428 90.10286 657 2.30482e-38
31.28572 90.10286 657 2.313895e-38
32.53714 90.10286 657 2.313895e-38
33.78857 90.10286 657 2.313967e-38
34.93333 89.82858 655.0001 2.314039e-38
36.07048 89.5543 653.0001 2.323294e-38
37.25714 89.41714 652 2.323366e-38
38.44 89.28 651 2.332549e-38
39.68 89.28 651 2.332549e-38
40.85714 89.14286 650.0001 2.332549e-38
42.09524 89.14286 650.0001 2.332549e-38
43.2 88.86858 648 2.332549e-38
44.43429 88.86858 648 2.332549e-38
45.66857 88.86858 648 2.332549e-38
46.83047 88.73143 647 2.332549e-38
48.06286 88.73143 647 2.332549e-38
49.21905 88.59428 646 2.332549e-38
50.37143 88.45715 645.0001 2.332549e-38
51.52 88.32001 644.0001 2.332549e-38
52.58286 88.04572 642 2.341733e-38
53.80572 88.04572 642 2.341769e-38
54.94286 87.90858 641.0001 2.341769e-38
56.07619 87.77143 640.0001 2.341769e-38
57.29524 87.77143 640.0001 2.341769e-38
58.51429 87.77143 640.0001 2.341769e-38
59.64001 87.63429 639.0001 2.341769e-38
60.85715 87.63429 639.0001 2.341769e-38
62.07429 87.63429 639.0001 2.341769e-38
63.19238 87.49715 638 2.341769e-38
64.40762 87.49715 638 2.341769e-38
65.62286 87.49715 638 2.341769e-38
66.8381 87.49715 638 2.341769e-38
68.05334 87.49715 638 2.341769e-38
69.26857 87.49715 638 2.341769e-38
70.48381 87.49715 638 2.323078e-38
71.81144 87.63429 639.0001 2.304747e-38
73.02858 87.63429 639.0001 2.313966e-38
74.36192 87.77143 640.0001 2.32297e-38
75.69905 87.90858 641.0001 2.157666e-38
77.04 88.04572 642 2.000075e-38
78.26286 88.04572 642 1.548753e-38
79.73335 88.32001 644.0001 1.108301e-38
81.08572 88.45715 645.0001 1.172479e-38
82.44191 88.59428 646 1.236512e-38
83.93143 88.86858 648 1.162936e-38
85.42857 89.14286 650.0001 1.089539e-38
86.8 89.28 651 9.69938e-39
88.17524 89.41714 652 8.504075e-39
89.5543 89.5543 653.0001 6.846723e-39
91.07619 89.82858 655.0001 5.197601e-39
92.32381 89.82858 655.0001 1.061802e-38
93.85714 90.10286 657 1.613455e-38
95.25334 90.24001 658.0001 1.374822e-38
96.94666 90.65143 661 1.14455e-38
98.35429 90.78858 662.0001 1.126038e-38
99.76572 90.92572 663.0001 1.116395e-38
101.3333 91.2 665 1.023778e-38
102.6 91.2 665 9.407288e-39
104.8038 92.02286 671 7.649117e-39
106.0819 92.02286 671 5.913217e-39
28.82667 91.49334 658.0001 2.323399e-38
30.03428 91.35429 657 2.304784e-38
31.28572 91.35429 657 2.295456e-38
32.53714 91.35429 657 2.295492e-38
33.68571 91.07619 655.0001 2.295564e-38
34.82667 90.7981 653.0001 2.2956e-38
36.01524 90.65904 652 2.295743e-38
37.2 90.52 651 2.31411e-38
38.44 90.52 651 2.32333e-38
39.68 90.52 651 2.32333e-38
40.85714 90.38096 650.0001 2.32333e-38
41.96572 90.10286 648 2.332513e-38
43.2 90.10286 648 2.332513e-38
44.43429 90.10286 648 2.332549e-38
45.5981 89.96381 647 2.332549e-38
46.83047 89.96381 647 2.332549e-38
47.98857 89.82477 646 2.332549e-38
49.14286 89.68571 645.0001 2.332549e-38
50.29334 89.54668 644.0001 2.332549e-38
51.52 89.54668 644.0001 2.332549e-38
52.50096 89.12953 641.0001 2.341769e-38
53.72191 89.12953 641.0001 2.341769e-38
54.85715 88.99048 640.0001 2.341769e-38
55.98857 88.85144 639.0001 2.341769e-38
57.20572 88.85144 639.0001 2.341769e-38
58.42286 88.85144 639.0001 2.341769e-38
59.64001 88.85144 639.0001 2.341769e-38
60.85715 88.85144 639.0001 2.341769e-38
61.97715 88.71238 638 2.341769e-38
63.19238 88.71238 638 2.341769e-38
64.40762 88.71238 638 2.341769e-38
65.62286 88.71238 638 2.341769e-38
66.8381 88.71238 638 2.341769e-38
68.05334 88.71238 638 2.323402e-38
69.26857 88.71238 638 2.305034e-38
70.48381 88.71238 638 2.29542e-38
71.81144 88.85144 639.0001 2.295312e-38
73.02858 88.85144 639.0001 2.258542e-38
74.36192 88.99048 640.0001 2.22152e-38
75.69905 89.12953 641.0001 1.908311e-38
77.04 89.26857 642 1.603675e-38
78.26286 89.26857 642 1.447949e-38
79.73335 89.54668 644.0001 1.301228e-38
81.08572 89.68571 645.0001 1.264531e-38
82.56953 89.96381 647 1.227902e-38
83.93143 90.10286 648 1.144603e-38
85.42857 90.38096 650.0001 1.071279e-38
86.8 90.52 651 1.025003e-38
88.17524 90.65904 652 9.881604e-39
89.5543 90.7981 653.0001 1.015961e-38
91.21524 91.21524 656 1.034575e-38
92.46476 91.21524 656 1.31058e-38
94.00001 91.49334 658.0001 1.58673e-38
95.54286 91.77143 660 1.365642e-38
96.94666 91.91048 661 1.14534e-38
98.35429 92.04953 662.0001 1.070828e-38
99.76572 92.18858 663.0001 9.964681e-39
102.7048 93.71809 674 9.863576e-39
103.5257 93.30096 671 9.767073e-39
104.8038 93.30096 671 1.050678e-38
28.78286 92.60572 657 2.341659e-38
30.03428 92.60572 657 2.313931e-38
31.2381 92.46476 656 2.286237e-38
32.48762 92.46476 656 2.286236e-38
33.58286 92.04191 653.0001 2.286272e-38
34.77333 91.90096 652 2.277161e-38
36.01524 91.90096 652 2.277161e-38
37.2 91.76 651 2.295528e-38
38.44 91.76 651 2.32333e-38
39.61905 91.61905 650.0001 2.32333e-38
40.85714 91.61905 650.0001 2.32333e-38
41.96572 91.33714 648 2.332513e-38
43.13334 91.1962 647 2.341697e-38
44.36572 91.1962 647 2.332585e-38
45.5981 91.1962 647 2.332549e-38
46.75809 91.05524 646 2.332549e-38
47.98857 91.05524 646 2.332549e-38
49.14286 90.91429 645.0001 2.332549e-38
50.29334 90.77334 644.0001 2.332549e-38
51.52 90.77334 644.0001 2.332585e-38
52.50096 90.35048 641.0001 2.341769e-38
53.6381 90.20953 640.0001 2.341769e-38
54.85715 90.20953 640.0001 2.341769e-38
55.98857 90.06858 639.0001 2.341769e-38
57.11619 89.92762 638 2.341769e-38
58.33143 89.92762 638 2.341769e-38
59.54667 89.92762 638 2.341769e-38
60.76191 89.92762 638 2.341769e-38
61.97715 89.92762 638 2.341769e-38
62.99429 89.64572 636.0001 2.341769e-38
64.20572 89.64572 636.0001 2.341769e-38
65.62286 89.92762 638 2.341769e-38
66.8381 89.92762 638 2.341769e-38
68.05334 89.92762 638 2.304604e-38
69.26857 89.92762 638 2.267797e-38
70.48381 89.92762 638 2.276837e-38
71.81144 90.06858 639.0001 2.286056e-38
73.02858 90.06858 639.0001 2.203404e-38
74.36192 90.20953 640.0001 2.119891e-38
75.69905 90.35048 641.0001 1.659529e-38
77.04 90.49143 642 1.209536e-38
78.26286 90.49143 642 1.347326e-38
79.73335 90.77334 644.0001 1.494298e-38
81.08572 90.91429 645.0001 1.356581e-38
82.44191 91.05524 646 1.218718e-38
83.93143 91.33714 648 1.135418e-38
85.42857 91.61905 650.0001 1.052837e-38
86.93333 91.90096 652 1.089282e-38
88.31048 92.04191 653.0001 1.13581e-38
89.82858 92.32381 655.0001 1.347497e-38
91.35429 92.60572 657 1.55886e-38
92.60572 92.60572 657 1.559252e-38
94.00001 92.74667 658.0001 1.559035e-38
95.54286 93.02857 660 1.356314e-38
97.09335 93.31049 662.0001 1.154131e-38
98.50286 93.45143 663.0001 1.015659e-38
100.0667 93.73333 665 8.864114e-39
102.4 94.72001 672.0001 9.483317e-39
103.68 94.72001 672.0001 1.014591e-38
104.96 94.72001 672.0001 1.346885e-38
106.24 94.72001 672.0001 1.68646e-38
28.78286 93.85714 657 2.304962e-38
30.03428 93.85714 657 2.276981e-38
31.2381 93.71429 656 2.25847e-38
32.33905 93.28572 653.0001 2.267725e-38
33.58286 93.28572 653.0001 2.286236e-38
34.77333 93.14286 652 2.277125e-38
35.96 93 651 2.277089e-38
37.2 93 651 2.295492e-38
38.44 93 651 2.314182e-38
39.61905 92.85715 650.0001 2.31411e-38
40.73143 92.57143 648 2.314074e-38
41.96572 92.57143 648 2.323258e-38
43.13334 92.42857 647 2.332513e-38
44.36572 92.42857 647 2.332513e-38
45.52762 92.28571 646 2.332513e-38
46.75809 92.28571 646 2.332549e-38
47.91429 92.14287 645.0001 2.332549e-38
49.14286 92.14287 645.0001 2.33255e-38
50.29334 92.00001 644.0001 2.332585e-38
51.36 91.71429 642 2.332585e-38
52.50096 91.57143 641.0001 2.341769e-38
53.6381 91.42858 640.0001 2.341769e-38
54.77143 91.28572 639.0001 2.341769e-38
55.98857 91.28572 639.0001 2.341769e-38
57.11619 91.14285 638 2.341769e-38
58.33143 91.14285 638 2.341769e-38
59.54667 91.14285 638 2.341769e-38
60.76191 91.14285 638 2.341769e-38
61.78286 90.85715 636.0001 2.341769e-38
62.99429 90.85715 636.0001 2.341769e-38
64.20572 90.85715 636.0001 2.341769e-38
65.41714 90.85715 636.0001 2.323402e-38
66.62858 90.85715 636.0001 2.305034e-38
68.05334 91.14285 638 2.276981e-38
69.26857 91.14285 638 2.258434e-38
70.48381 91.14285 638 2.267689e-38
71.81144 91.28572 639.0001 2.286092e-38
73.02858 91.28572 639.0001 2.092592e-38
74.36192 91.42858 640.0001 1.899055e-38
75.69905 91.57143 641.0001 1.659851e-38
77.04 91.71429 642 1.430013e-38
78.50667 92.00001 644.0001 1.384133e-38
79.85715 92.14287 645.0001 1.329425e-38
81.21143 92.28571 646 1.264709e-38
82.56953 92.42857 647 1.200386e-38
83.93143 92.57143 648 1.135777e-38
85.56001 93 651 1.08042e-38
86.93333 93.14286 652 1.209416e-38
88.31048 93.28572 653.0001 1.348174e-38
89.96571 93.71429 656 1.430611e-38
91.35429 93.85714 657 1.522446e-38
92.60572 93.85714 657 1.531521e-38
94.28572 94.28572 660 1.540667e-38
95.68762 94.42857 661 1.531087e-38
97.09335 94.57143 662.0001 1.521403e-38
98.50286 94.71429 663.0001 1.447686e-38
100.0667 95 665 1.382828e-38
102.4 96.00001 672.0001 1.364569e-38
103.68 96.00001 672.0001 1.355782e-38
104.96 96.00001 672.0001 1.493394e-38
106.24 96.00001 672.0001 1.631145e-38
28.78286 95.10857 657 2.267331e-38
30.03428 95.10857 657 2.248964e-38
31.28572 95.10857 657 2.239959e-38
32.33905 94.52953 653.0001 2.258434e-38
33.58286 94.52953 653.0001 2.286128e-38
34.77333 94.38476 652 2.277196e-38
35.96 94.24001 651 2.277017e-38
37.2 94.24001 651 2.295384e-38
38.38095 94.09525 650.0001 2.313966e-38
39.61905 94.09525 650.0001 2.304855e-38
40.73143 93.80572 648 2.304855e-38
41.96572 93.80572 648 2.314038e-38
43.13334 93.66095 647 2.332513e-38
44.29714 93.51619 646 2.332513e-38
45.52762 93.51619 646 2.332513e-38
46.68572 93.37144 645.0001 2.332549e-38
47.84 93.22667 644.0001 2.341733e-38
49.06667 93.22667 644.0001 2.341769e-38
50.13714 92.93714 642 2.341769e-38
51.28 92.79238 641.0001 2.341769e-38
52.41905 92.64763 640.0001 2.341769e-38
53.55429 92.50286 639.0001 2.341769e-38
54.77143 92.50286 639.0001 2.341769e-38
55.98857 92.50286 639.0001 2.341769e-38
57.11619 92.3581 638 2.341769e-38
58.33143 92.3581 638 2.341769e-38
59.54667 92.3581 638 2.341769e-38
60.76191 92.3581 638 2.341769e-38
61.78286 92.06857 636.0001 2.341769e-38
62.89524 91.92382 635.0001 2.341769e-38
64.10477 91.92382 635.0001 2.341769e-38
65.41714 92.06857 636.0001 2.30464e-38
66.62858 92.06857 636.0001 2.267833e-38
67.84 92.06857 636.0001 2.258434e-38
69.26857 92.3581 638 2.249358e-38
70.48381 92.3581 638 2.267797e-38
71.81144 92.50286 639.0001 2.294917e-38
73.02858 92.50286 639.0001 1.981922e-38
74.36192 92.64763 640.0001 1.678506e-38
75.69905 92.79238 641.0001 1.669251e-38
77.04 92.93714 642 1.659887e-38
78.50667 93.22667 644.0001 1.411714e-38
79.85715 93.37144 645.0001 1.172902e-38
81.21143 93.51619 646 1.172791e-38
82.56953 93.66095 647 1.181974e-38
83.93143 93.80572 648 1.145346e-38
85.56001 94.24001 651 1.117759e-38
86.93333 94.38476 652 1.338379e-38
88.31048 94.52953 653.0001 1.559359e-38
89.96571 94.96381 656 1.522518e-38
91.35429 95.10857 657 1.494681e-38
92.74667 95.25334 658.0001 1.50365e-38
94.28572 95.54286 660 1.522304e-38
95.68762 95.68762 661 1.706011e-38
97.24001 95.97715 663.0001 1.889684e-38
98.50286 95.97715 663.0001 1.880503e-38
100.0667 96.26667 665 1.880034e-38
102.4 97.28001 672.0001 1.788195e-38
103.9886 97.56953 674 1.703857e-38
105.2724 97.56953 674 1.638136e-38
28.73905 96.21333 656 2.221233e-38
29.98857 96.21333 656 2.221305e-38
31.19048 96.06667 655.0001 2.23074e-38
32.33905 95.77334 653.0001 2.239959e-38
33.53143 95.62667 652 2.258398e-38
34.72 95.48 651 2.258398e-38
35.96 95.48 651 2.267582e-38
37.14286 95.33334 650.0001 2.276909e-38
38.38095 95.33334 650.0001 2.286415e-38
39.49714 95.04 648 2.286308e-38
40.73143 95.04 648 2.286272e-38
41.96572 95.04 648 2.295564e-38
43.06667 94.74667 646 2.314146e-38
44.22857 94.60001 645.0001 2.304963e-38
45.45715 94.60001 645.0001 2.305035e-38
46.61333 94.45334 644.0001 2.314182e-38
47.84 94.45334 644.0001 2.332549e-38
48.91429 94.16 642 2.332549e-38
50.13714 94.16 642 2.341733e-38
51.28 94.01334 641.0001 2.341769e-38
52.41905 93.86667 640.0001 2.341769e-38
53.55429 93.72 639.0001 2.341769e-38
54.77143 93.72 639.0001 2.341769e-38
55.90096 93.57333 638 2.341769e-38
57.11619 93.57333 638 2.341769e-38
58.14857 93.28 636.0001 2.341769e-38
59.36 93.28 636.0001 2.341769e-38
60.57143 93.28 636.0001 2.341769e-38
61.78286 93.28 636.0001 2.341769e-38
62.89524 93.13334 635.0001 2.323402e-38
64.10477 93.13334 635.0001 2.314218e-38
65.41714 93.28 636.0001 2.286164e-38
66.62858 93.28 636.0001 2.258542e-38
67.84 93.28 636.0001 2.276981e-38
69.26857 93.57333 638 2.295527e-38
70.48381 93.57333 638 2.129793e-38
71.81144 93.72 639.0001 1.973349e-38
73.02858 93.72 639.0001 1.678434e-38
74.36192 93.86667 640.0001 1.393457e-38
75.69905 94.01334 641.0001 1.549973e-38
77.04 94.16 642 1.706269e-38
78.50667 94.45334 644.0001 1.411924e-38
79.85715 94.60001 645.0001 1.12694e-38
81.21143 94.74667 646 1.099239e-38
82.56953 94.89333 647 1.071689e-38
83.93143 95.04 648 1.062542e-38
85.42857 95.33334 650.0001 1.053433e-38
86.93333 95.62667 652 1.301607e-38
88.58096 96.06667 655.0001 1.550246e-38
90.10286 96.36 657 1.623536e-38
91.49334 96.50667 658.0001 1.705724e-38
92.74667 96.50667 658.0001 1.779446e-38
94.28572 96.8 660 1.843805e-38
95.68762 96.94666 661 1.926853e-38
97.24001 97.24001 663.0001 2.010225e-38
98.50286 97.24001 663.0001 1.926319e-38
100.0667 97.53334 665 1.834262e-38
102.7048 98.85333 674 1.749954e-38
104.2972 99.14668 676.0001 1.675263e-38
105.5848 99.14668 676.0001 1.648139e-38
27.53143 97.61143 657 1.872366e-38
28.73905 97.46285 656 2.175279e-38
29.94286 97.31429 655.0001 2.202794e-38
31.19048 97.31429 655.0001 2.23056e-38
32.28952 96.86858 652 2.230668e-38
33.53143 96.86858 652 2.23074e-38
34.72 96.72 651 2.240031e-38
35.90477 96.57143 650.0001 2.258398e-38
37.14286 96.57143 650.0001 2.258398e-38
38.26286 96.27428 648 2.267725e-38
39.49714 96.27428 648 2.267761e-38
40.73143 96.27428 648 2.277017e-38
41.83619 95.97714 646 2.286308e-38
43.06667 95.97714 646 2.295492e-38
44.22857 95.82858 645.0001 2.286308e-38
45.38667 95.68001 644.0001 2.286344e-38
46.61333 95.68001 644.0001 2.304747e-38
47.69143 95.38286 642 2.323294e-38
48.91429 95.38286 642 2.332549e-38
50.05905 95.23429 641.0001 2.341733e-38
51.2 95.08572 640.0001 2.341769e-38
52.33715 94.93716 639.0001 2.341769e-38
53.47048 94.78857 638 2.341769e-38
54.68571 94.78857 638 2.341769e-38
55.72572 94.49143 636.0001 2.341769e-38
56.93715 94.49143 636.0001 2.341769e-38
58.14857 94.49143 636.0001 2.341769e-38
59.26667 94.34286 635.0001 2.341769e-38
60.57143 94.49143 636.0001 2.341769e-38
61.68572 94.34286 635.0001 2.341769e-38
62.89524 94.34286 635.0001 2.314074e-38
64.10477 94.34286 635.0001 2.286272e-38
65.41714 94.49143 636.0001 2.26751e-38
66.62858 94.49143 636.0001 2.249359e-38
67.84 94.49143 636.0001 2.29542e-38
69.26857 94.78857 638 2.341336e-38
70.48381 94.78857 638 1.991785e-38
71.81144 94.93716 639.0001 1.65084e-38
73.02858 94.93716 639.0001 1.374002e-38
74.36192 95.08572 640.0001 1.108651e-38
75.69905 95.23429 641.0001 1.430904e-38
77.04 95.38286 642 1.7614e-38
78.50667 95.68001 644.0001 1.421282e-38
79.85715 95.82858 645.0001 1.080911e-38
81.21143 95.97714 646 1.025517e-38
82.56953 96.12572 647 9.704891e-39
83.93143 96.27428 648 9.797824e-39
85.42857 96.57143 650.0001 9.891856e-39
87.06667 97.01714 653.0001 1.264876e-38
88.71619 97.46285 656 1.54103e-38
90.10286 97.61143 657 1.733887e-38
91.49334 97.76001 658.0001 1.926421e-38
92.74667 97.76001 658.0001 2.046958e-38
94.28572 98.05714 660 2.174738e-38
95.83238 98.35429 662.0001 2.156765e-38
97.24001 98.50286 663.0001 2.138505e-38
98.8 98.8 665 1.96269e-38
101.421 100.1371 674 1.796091e-38
102.8571 100.2857 675 1.720395e-38
104.6057 100.7314 678.0001 1.648576e-38
106.2095 101.0286 680 1.658656e-38
107.5048 101.0286 680 1.667554e-38
108.8 101.0286 680 1.520546e-38
110.0952 101.0286 680 1.372058e-38
26.28 98.86285 657 1.714913e-38
27.48952 98.71239 656 1.936292e-38
28.69524 98.5619 655.0001 2.156876e-38
29.94286 98.5619 655.0001 2.16606e-38
31.19048 98.5619 655.0001 2.184606e-38
32.28952 98.11047 652 2.193826e-38
33.53143 98.11047 652 2.212337e-38
34.72 97.96 651 2.23074e-38
35.90477 97.80953 650.0001 2.249215e-38
37.14286 97.80953 650.0001 2.258398e-38
38.26286 97.50858 648 2.258506e-38
39.49714 97.50858 648 2.267725e-38
40.66857 97.3581 647 2.277017e-38
41.83619 97.20762 646 2.277053e-38
43 97.05715 645.0001 2.286308e-38
44.16 96.90668 644.0001 2.277124e-38
45.38667 96.90668 644.0001 2.277124e-38
46.61333 96.90668 644.0001 2.295528e-38
47.69143 96.60572 642 2.31411e-38
48.8381 96.45524 641.0001 2.323294e-38
49.98096 96.30476 640.0001 2.332549e-38
51.2 96.30476 640.0001 2.332549e-38
52.33715 96.1543 639.0001 2.332549e-38
53.47048 96.00381 638 2.332549e-38
54.68571 96.00381 638 2.341733e-38
55.72572 95.70287 636.0001 2.341733e-38
56.84763 95.55238 635.0001 2.341769e-38
58.05715 95.55238 635.0001 2.341769e-38
59.26667 95.55238 635.0001 2.341769e-38
60.57143 95.70287 636.0001 2.341769e-38
61.58857 95.40191 634 2.341769e-38
62.89524 95.55238 635.0001 2.304747e-38
64.10477 95.55238 635.0001 2.267725e-38
65.41714 95.70287 636.0001 2.267725e-38
66.62858 95.70287 636.0001 2.277017e-38
67.84 95.70287 636.0001 2.26787e-38
69.26857 96.00381 638 2.267902e-38
70.59429 96.1543 639.0001 1.816648e-38
71.81144 96.1543 639.0001 1.365246e-38
73.02858 96.1543 639.0001 1.227555e-38
74.36192 96.30476 640.0001 1.090239e-38
75.69905 96.45524 641.0001 1.394165e-38
77.04 96.60572 642 1.706652e-38
78.50667 96.90668 644.0001 1.338338e-38
79.85715 97.05715 645.0001 9.704889e-39
81.21143 97.20762 646 1.071288e-38
82.69714 97.50858 648 1.181458e-38
84.19048 97.80953 650.0001 1.347339e-38
85.56001 97.96 651 1.521976e-38
87.06667 98.26096 653.0001 1.678677e-38
88.58096 98.5619 655.0001 1.835374e-38
90.10286 98.86285 657 1.613717e-38
91.49334 99.01334 658.0001 1.401851e-38
92.74667 99.01334 658.0001 1.622689e-38
94.42857 99.46476 661 1.843487e-38
95.97715 99.76572 663.0001 2.019012e-38
97.68 100.2171 666 2.19364e-38
99.39429 100.6686 669 2.027221e-38
100.9695 100.9695 671 1.859585e-38
102.7048 101.421 674 1.648828e-38
104.2972 101.7219 676.0001 1.448156e-38
106.2095 102.3238 680 1.447369e-38
107.821 102.6248 682.0001 1.45655e-38
109.12 102.6248 682.0001 1.392011e-38
110.4191 102.6248 682.0001 1.325996e-38
26.28 100.1143 657 1.852846e-38
27.48952 99.96191 656 1.991357e-38
28.69524 99.80952 655.0001 2.138294e-38
29.94286 99.80952 655.0001 2.138365e-38
31.09524 99.50477 653.0001 2.138473e-38
32.28952 99.35238 652 2.16606e-38
33.48 99.2 651 2.193718e-38
34.66667 99.04762 650.0001 2.221341e-38
35.90477 99.04762 650.0001 2.249179e-38
37.02857 98.74286 648 2.249179e-38
38.26286 98.74286 648 2.258398e-38
39.49714 98.74286 648 2.267689e-38
40.66857 98.59048 647 2.276945e-38
41.83619 98.4381 646 2.276981e-38
43 98.28572 645.0001 2.276981e-38
44.16 98.13334 644.0001 2.267797e-38
45.38667 98.13334 644.0001 2.267833e-38
46.61333 98.13334 644.0001 2.286308e-38
47.69143 97.82858 642 2.304747e-38
48.91429 97.82858 642 2.314038e-38
50.05905 97.67619 641.0001 2.332477e-38
51.2 97.52382 640.0001 2.332513e-38
52.25524 97.21905 638 2.332549e-38
53.47048 97.21905 638 2.332585e-38
54.51429 96.91429 636.0001 2.341733e-38
55.6381 96.76191 635.0001 2.341697e-38
56.84763 96.76191 635.0001 2.341769e-38
58.05715 96.76191 635.0001 2.341769e-38
59.17334 96.60953 634 2.341769e-38
60.4762 96.76191 635.0001 2.341769e-38
61.58857 96.60953 634 2.341517e-38
62.79619 96.60953 634 2.29542e-38
64.10477 96.76191 635.0001 2.258542e-38
65.31429 96.76191 635.0001 2.276945e-38
66.62858 96.91429 636.0001 2.304603e-38
68.05334 97.21905 638 2.249717e-38
69.26857 97.21905 638 2.202895e-38
70.59429 97.37144 639.0001 1.641579e-38
71.81144 97.37144 639.0001 1.090057e-38
73.14286 97.52382 640.0001 1.080758e-38
74.4781 97.67619 641.0001 1.080982e-38
75.69905 97.67619 641.0001 1.366756e-38
77.04 97.82858 642 1.651265e-38
78.62858 98.28572 645.0001 1.255186e-38
79.98096 98.4381 646 8.69476e-39
81.21143 98.4381 646 1.126077e-38
82.69714 98.74286 648 1.393551e-38
84.19048 99.04762 650.0001 1.724844e-38
85.69143 99.35238 652 2.064746e-38
87.06667 99.50477 653.0001 2.092587e-38
88.71619 99.96191 656 2.129249e-38
90.10286 100.1143 657 1.502184e-38
91.49334 100.2667 658.0001 8.866006e-39
93.02857 100.5714 660 1.198807e-38
94.57143 100.8762 662.0001 1.512196e-38
96.41143 101.4857 666 1.881583e-38
97.82668 101.6381 667.0001 2.248744e-38
99.54285 102.0952 670 2.092048e-38
100.9695 102.2476 671 1.934346e-38
102.7048 102.7048 674 1.585261e-38
104.2972 103.0095 676.0001 1.244645e-38
106.0533 103.4667 679 1.244144e-38
107.821 103.9238 682.0001 1.25408e-38
109.12 103.9238 682.0001 1.263837e-38
110.4191 103.9238 682.0001 1.279504e-38
26.28 101.3657 657 1.89966e-38
27.48952 101.2114 656 1.991321e-38
28.69524 101.0572 655.0001 2.09216e-38
29.94286 101.0572 655.0001 2.11067e-38
31.19048 101.0572 655.0001 2.129217e-38
32.28952 100.5943 652 2.147621e-38
33.48 100.44 651 2.16606e-38
34.66667 100.2857 650.0001 2.193719e-38
35.90477 100.2857 650.0001 2.2217e-38
37.02857 99.97714 648 2.230704e-38
38.26286 99.97714 648 2.248964e-38
39.49714 99.97714 648 2.249215e-38
40.66857 99.82285 647 2.258542e-38
41.83619 99.66858 646 2.267725e-38
43 99.51429 645.0001 2.267797e-38
44.16 99.36 644.0001 2.267761e-38
45.38667 99.36 644.0001 2.267761e-38
46.46857 99.05143 642 2.277017e-38
47.69143 99.05143 642 2.286308e-38
48.91429 99.05143 642 2.295564e-38
50.05905 98.89714 641.0001 2.304891e-38
51.2 98.74287 640.0001 2.304891e-38
52.25524 98.43429 638 2.304999e-38
53.47048 98.43429 638 2.314182e-38
54.51429 98.12572 636.0001 2.323402e-38
55.72572 98.12572 636.0001 2.332585e-38
56.84763 97.97144 635.0001 2.341769e-38
58.05715 97.97144 635.0001 2.341769e-38
59.17334 97.81715 634 2.341769e-38
60.38095 97.81715 634 2.313966e-38
61.58857 97.81715 634 2.2862e-38
62.79619 97.81715 634 2.276981e-38
64.00381 97.81715 634 2.258542e-38
65.31429 97.97144 635.0001 2.286201e-38
66.62858 98.12572 636.0001 2.313822e-38
68.05334 98.43429 638 2.074476e-38
69.26857 98.43429 638 1.835011e-38
70.59429 98.58858 639.0001 1.503675e-38
71.81144 98.58858 639.0001 1.172847e-38
73.14286 98.74287 640.0001 1.209325e-38
74.4781 98.89714 641.0001 1.24614e-38
75.81715 99.05143 642 1.568685e-38
77.28001 99.36 644.0001 1.899185e-38
78.62858 99.51429 645.0001 1.733522e-38
79.85715 99.51429 645.0001 1.576938e-38
81.33714 99.82285 647 1.724704e-38
82.95238 100.2857 650.0001 1.863393e-38
84.32 100.44 651 1.881047e-38
85.82287 100.7486 653.0001 1.9091e-38
87.33334 101.0572 655.0001 1.624303e-38
88.71619 101.2114 656 1.348828e-38
90.10286 101.3657 657 9.776789e-39
91.77143 101.8286 660 6.068935e-39
93.31049 102.1371 662.0001 9.118525e-39
95 102.6 665 1.226356e-38
96.55619 102.9086 667.0001 1.60493e-38
97.82668 102.9086 667.0001 1.982566e-38
99.54285 103.3714 670 1.816078e-38
100.9695 103.5257 671 1.640582e-38
102.4 103.68 672.0001 1.465337e-38
104.1429 104.1429 675 1.28823e-38
105.4286 104.1429 675 1.363204e-38
106.7143 104.1429 675 1.44661e-38
109.28 105.3771 683 1.327799e-38
110.4191 105.2229 682.0001 1.205354e-38
25.06667 102.7733 658.0001 1.042143e-38
26.28 102.6171 657 1.954726e-38
27.53143 102.6171 657 2.000469e-38
28.78286 102.6171 657 2.046242e-38
29.94286 102.3048 655.0001 2.082976e-38
31.2381 102.461 656 2.119854e-38
32.28952 101.8362 652 2.129253e-38
33.48 101.68 651 2.14762e-38
34.66667 101.5238 650.0001 2.175171e-38
35.79428 101.2114 648 2.202937e-38
37.02857 101.2114 648 2.221377e-38
38.26286 101.2114 648 2.239744e-38
39.43619 101.0552 647 2.239995e-38
40.66857 101.0552 647 2.249143e-38
41.77143 100.7429 645.0001 2.258327e-38
43 100.7429 645.0001 2.267618e-38
44.16 100.5867 644.0001 2.267725e-38
45.38667 100.5867 644.0001 2.267689e-38
46.46857 100.2743 642 2.26769e-38
47.61715 100.1181 641.0001 2.267761e-38
48.8381 100.1181 641.0001 2.277089e-38
49.98096 99.96191 640.0001 2.286308e-38
51.04 99.64953 638 2.286344e-38
52.25524 99.64953 638 2.286344e-38
53.30286 99.33714 636.0001 2.295528e-38
