ply
format ascii 1.0
element vertex 539
property float x
property float y
property float z
end_header
8.9662199999999999 -64.793099999999995 -43.010599999999997
9.9349799999999995 -56.036000000000001 -43.397100000000002
10.6404 -46.615200000000002 -43.691800000000001
8.6087799999999994 -74.072000000000003 -41.718299999999999
7.7535100000000003 -38.006999999999998 -42.477899999999998
13.438499999999999 -31.274799999999999 -43.814700000000002
11.9114 -20.236799999999999 -43.646799999999999
3.86917 -82.277900000000002 -39.881599999999999
3.4155199999999999 -59.649500000000003 -40.425800000000002
3.95607 -47.7318 -40.837499999999999
6.2459199999999999 -25.4785 -41.6584
8.04373 -10.120200000000001 -42.320099999999996
2.78573 -31.798400000000001 -40.089599999999997
5.5716799999999997 -2.9415100000000001 -41.1267
0.46305099999999999 -92.196200000000005 -37.694299999999998
-1.6813800000000001 -74.012299999999996 -37.544699999999999
-2.0687899999999999 -63.801299999999998 -37.632800000000003
16.504899999999999 -42.2378 -42.118400000000001
0.71223099999999995 -18.994399999999999 -39.040100000000002
-2.4489700000000001 -41.206200000000003 -37.2624
-0.70561499999999999 -10.261799999999999 -38.155900000000003
12.520200000000001 4.5311599999999999 -41.210599999999999
-4.8753200000000003 -87.784300000000002 -35.167000000000002
-3.5646800000000001 -25.200500000000002 -36.529000000000003
15.2316 -7.2001600000000003 -41.000599999999999
1.47794 5.5717299999999996 -38.157400000000003
-5.9449399999999999 -54.176200000000001 -34.888800000000003
18.3813 -53.872700000000002 -40.0383
-2.5995200000000001 -0.27738600000000002 -36.6023
5.0431900000000001 14.565300000000001 -38.357900000000001
8.1986699999999999 -88.543199999999999 -36.4011
-9.0815400000000004 -80.494100000000003 -32.835900000000002
-8.47654 -71.134200000000007 -33.141599999999997
15.946 -69.121600000000001 -38.862099999999998
-6.4718400000000003 -33.782699999999998 -34.459800000000001
-8.4880999999999993 -44.032899999999998 -32.956099999999999
-7.1249399999999996 -15.036799999999999 -33.713500000000003
-7.1851200000000004 -7.6136400000000002 -33.746600000000001
11.125999999999999 23.4499 -38.334899999999998
-8.1152999999999995 -95.742500000000007 -31.162600000000001
-10.723699999999999 -64.289900000000003 -31.3691
20.032299999999999 -25.276900000000001 -38.725099999999998
14.942500000000001 14.028499999999999 -37.3904
3.65022 29.972899999999999 -35.3964
17.316700000000001 110.13200000000001 -39.698900000000002
1.49156 -97.967299999999994 -31.667400000000001
-12.9962 -85.521299999999997 -28.937999999999999
-12.186 -33.034399999999998 -29.959199999999999
-8.8600399999999997 2.72925 -31.691600000000001
15.3872 -80.026799999999994 -34.456499999999998
-15.308999999999999 -77.278400000000005 -27.556899999999999
21.746700000000001 -58.914900000000003 -36.227899999999998
-12.5504 -21.250599999999999 -29.403400000000001
-1.83839 15.461600000000001 -32.398600000000002
-0.36826500000000001 22.690999999999999 -32.867699999999999
12.5357 31.542999999999999 -35.738
2.92577 38.826900000000002 -33.833199999999998
18.382200000000001 118.41500000000001 -38.630600000000001
-15.452999999999999 -59.950499999999998 -27.394100000000002
23.285799999999998 -40.5501 -36.2624
-12.3004 -5.1678199999999999 -29.312000000000001
-16.050999999999998 -47.4221 -26.720099999999999
22.746700000000001 -16.739000000000001 -35.615099999999998
21.139399999999998 -5.0451100000000002 -35.624000000000002
18.9937 7.5479200000000004 -35.248399999999997
10.5822 44.588900000000002 -33.267400000000002
1.2929200000000001 47.567599999999999 -31.451599999999999
-17.6874 -94.623699999999999 -23.844100000000001
10.857900000000001 -94.882999999999996 -30.052499999999998
22.605399999999999 -66.869 -33.276600000000002
-16.158999999999999 -10.2645 -25.9359
-6.6689400000000001 10.0433 -28.258299999999998
-2.9838200000000001 31.595800000000001 -29.368300000000001
25.465299999999999 110.024 -37.222200000000001
9.2115600000000004 113.01300000000001 -33.676499999999997
-20.025400000000001 -67.1708 -23.201699999999999
-18.399699999999999 -35.761099999999999 -24.226600000000001
8.2111099999999997 53.3566 -31.424800000000001
15.5375 -87.762100000000004 -29.848299999999998
-21.347300000000001 -74.223600000000005 -22.089500000000001
-19.238299999999999 -28.536300000000001 -23.276700000000002
-16.6724 2.7141799999999998 -24.513500000000001
-0.50709300000000002 56.331099999999999 -28.9422
-21.851500000000001 -84.402199999999993 -21.107199999999999
13.295400000000001 123.27500000000001 -32.401200000000003
-22.623699999999999 -60.489699999999999 -20.593299999999999
27.435099999999998 -54.496200000000002 -31.6112
-22.597200000000001 -51.810400000000001 -20.694299999999998
-20.5779 -18.276599999999998 -21.819099999999999
-7.7336 20.7685 -25.261800000000001
20.033100000000001 22.082899999999999 -31.159600000000001
6.38314 61.873899999999999 -29.0486
22.7577 123.084 -33.735799999999998
-23.7407 -91.744399999999999 -19.104700000000001
28.256900000000002 -27.4116 -31.389299999999999
-5.6644100000000002 43.357700000000001 -25.4877
-0.39061899999999999 65.935400000000001 -26.882300000000001
-3.8831199999999999 -95.722999999999999 -22.5334
27.119700000000002 -10.6388 -30.782599999999999
23.261600000000001 11.858499999999999 -30.451499999999999
18.5366 32.930100000000003 -29.839500000000001
7.0576600000000003 119.81399999999999 -28.5794
22.773 -79.003799999999998 -27.894300000000001
27.924299999999999 -63.929299999999998 -29.256499999999999
-24.404199999999999 -40.656500000000001 -18.364899999999999
29.822199999999999 -39.756300000000003 -30.1554
-22.287199999999999 -6.4914800000000001 -19.440300000000001
26.299499999999998 0.12623500000000001 -29.933399999999999
-24.515799999999999 -23.988199999999999 -17.7622
-21.830100000000002 4.5901100000000001 -18.746500000000001
16.5688 45.358499999999999 -28.0717
-6.4742899999999999 57.248399999999997 -23.274999999999999
-27.537199999999999 -86.396699999999996 -15.367100000000001
-27.3856 -71.172300000000007 -15.638199999999999
-9.4851399999999995 31.060099999999998 -21.2578
13.317500000000001 58.606299999999997 -26.815300000000001
3.1659199999999998 109.497 -25.489799999999999
31.255299999999998 110.08 -31.331499999999998
9.9803599999999992 132.22999999999999 -27.711400000000001
-7.0068599999999996 67.4636 -21.7958
9.9832000000000001 68.798500000000004 -25.465
-3.0936300000000001 76.949100000000001 -22.937899999999999
7.5355999999999996 -97.300200000000004 -21.237300000000001
-28.6006 -56.708399999999997 -14.0822
-27.918500000000002 -32.188600000000001 -14.672700000000001
-26.210999999999999 -12.3674 -15.3933
16.935199999999998 -97.121300000000005 -22.452999999999999
-16.5032 -95.306700000000006 -15.2112
-29.758800000000001 -64.472499999999997 -12.9979
-29.040800000000001 -45.686999999999998 -13.3933
-13.361499999999999 13.834 -18.110399999999998
-29.104099999999999 -93.969800000000006 -11.8201
-10.167899999999999 48.158200000000001 -18.889500000000002
1.3189200000000001 119.943 -22.2347
6.3926800000000004 127.075 -23.584
19.941099999999999 131.286 -26.426400000000001
21.545000000000002 -91.2834 -22.162500000000001
-13.776300000000001 23.287099999999999 -16.3246
25.377500000000001 25.691500000000001 -25.097799999999999
-12.091900000000001 39.294400000000003 -17.281600000000001
21.954799999999999 39.561799999999998 -24.613
-2.4359099999999998 85.051100000000005 -20.4071
-1.5950599999999999 93.570400000000006 -20.474
-2.8445399999999998 111.95 -20.559999999999999
26.076599999999999 126.22799999999999 -26.975899999999999
29.548400000000001 -75.498999999999995 -23.518799999999999
33.793100000000003 -59.464100000000002 -24.622900000000001
34.051900000000003 -24.018799999999999 -25.230699999999999
-11.9954 64.623900000000006 -16.8888
-10.3965 77.782700000000006 -17.514099999999999
10.1792 77.552700000000002 -21.873999999999999
-7.08744 99.654399999999995 -18.613900000000001
0.59173600000000004 103.02200000000001 -20.645700000000001
9.7469199999999994 139.28299999999999 -23.302
35.241599999999998 -45.201799999999999 -24.564499999999999
35.144199999999998 -34.764299999999999 -24.628499999999999
33.610799999999998 -13.091699999999999 -24.590299999999999
32.458799999999997 -5.6701499999999996 -24.777699999999999
-29.218499999999999 -4.1114100000000002 -11.199400000000001
30.8508 5.2748499999999998 -24.385000000000002
6.2358500000000001 85.753799999999998 -20.467500000000001
31.377700000000001 119.352 -26.504300000000001
1.38134 -96.520499999999998 -15.4701
-33.948099999999997 -79.621499999999997 -8.0659600000000005
28.624600000000001 18.477599999999999 -23.592400000000001
20.618500000000001 51.276299999999999 -22.284600000000001
-9.8513800000000007 91.001099999999994 -16.272099999999998
2.53287 135.85400000000001 -19.765999999999998
-34.086300000000001 -88.384299999999996 -7.2316000000000003
28.392399999999999 -82.822699999999998 -20.784300000000002
-32.186900000000001 -24.537700000000001 -8.657
7.1489200000000004 100.242 -19.259399999999999
-34.721800000000002 -68.8857 -6.5841700000000003
-34.295099999999998 -55.049599999999998 -6.7727899999999996
-31.594999999999999 -12.0105 -8.8606499999999997
-16.474399999999999 29.3339 -12.2142
-14.6271 54.048400000000001 -13.1418
19.197900000000001 60.017000000000003 -20.693100000000001
-33.921100000000003 -36.728200000000001 -6.6649000000000003
-29.216699999999999 4.3311299999999999 -8.3532499999999992
-15.3773 72.747299999999996 -12.5847
-12.2761 102.523 -13.6486
-19.9907 10.5268 -9.5701800000000006
32.261499999999998 12.508699999999999 -21.1418
16.034199999999998 73.271000000000001 -18.595800000000001
-9.2439400000000003 109.146 -13.847300000000001
23.978100000000001 -96.454999999999998 -16.637599999999999
-7.7911099999999998 -95.590800000000002 -9.7585599999999992
-35.795000000000002 -45.434199999999997 -4.4188400000000003
-16.9697 19.727 -9.6560600000000001
25.569500000000001 44.6511 -19.590199999999999
-13.5724 86.659700000000001 -11.639099999999999
12.9627 -97.4696 -13.5258
-37.543599999999998 -75.158600000000007 -2.71929
36.427799999999998 -68.917000000000002 -19.2136
38.889699999999998 -54.400599999999997 -19.911999999999999
28.940999999999999 33.853900000000003 -19.414100000000001
-16.758500000000002 43.878300000000003 -9.5937800000000006
-8.5136099999999999 118.027 -12.551500000000001
-2.03735 126.599 -14.3109
-31.802700000000002 -95.157799999999995 -3.1385900000000002
-18.849399999999999 -94.453599999999994 -5.8673500000000001
-37.373100000000001 -60.691899999999997 -2.5167099999999998
39.055399999999999 -29.4788 -19.709099999999999
-34.449199999999998 -3.8264900000000002 -3.9243800000000002
-17.726800000000001 64.814700000000002 -8.9749599999999994
13.377700000000001 86.458399999999997 -15.9221
29.846399999999999 110.605 -20.4617
31.4358 27.128599999999999 -18.6004
23.1983 124.261 -18.131599999999999
22.378599999999999 131.506 -18.294
14.815 140.898 -16.7361
-2.74953 141.643 -12.940300000000001
40.3538 -45.682699999999997 -18.1905
-37.375300000000003 -25.0244 -1.44116
38.694299999999998 -10.105 -18.278600000000001
12.9217 98.946299999999994 -14.798500000000001
-39.545699999999997 -83.161799999999999 0.62463100000000005
36.639000000000003 -76.117000000000004 -16.139700000000001
-38.929499999999997 -51.934199999999997 0.194128
-38.054099999999998 -32.3414 -0.54969599999999996
-37.186199999999999 -14.908099999999999 -0.94718199999999997
37.875300000000003 0.299761 -17.613099999999999
31.648199999999999 -89.650400000000005 -13.821999999999999
-18.792899999999999 50.510100000000001 -5.5554600000000001
25.457100000000001 55.645800000000001 -15.1485
22.098199999999999 66.017200000000003 -14.771000000000001
-6.4982499999999996 131.047 -9.5147499999999994
2.4948100000000002 -96.584800000000001 -6.8158200000000004
-40.4375 -92.593199999999996 2.6647699999999999
-40.704300000000003 -69.174599999999998 2.42082
39.764200000000002 -17.1708 -16.342199999999998
-19.128599999999999 29.364799999999999 -4.36883
-14.806100000000001 91.945499999999996 -6.3050899999999999
35.363 17.7713 -15.233499999999999
-18.843399999999999 76.842799999999997 -4.29169
18.1282 79.059200000000004 -11.714700000000001
-16.647099999999998 114.61199999999999 -4.8125499999999999
-23.030100000000001 7.0409300000000004 -0.78538300000000005
-12.7216 105.07599999999999 -4.8245399999999998
24.2149 115.407 -12.956799999999999
16.491099999999999 126.32599999999999 -11.481400000000001
16.508700000000001 135.21100000000001 -11.814
30.889800000000001 -96.819400000000002 -9.8210700000000006
-6.7949099999999998 -95.655799999999999 -1.7861100000000001
-42.565199999999997 -78.064400000000006 5.6664000000000003
-30.742999999999999 2.9769999999999999 1.72014
-11.0124 138.505 -4.9765800000000002
-42.085599999999999 -43.104300000000002 5.7303699999999997
39.273099999999999 -37.413200000000003 -12.1911
-39.9435 -6.4933800000000002 4.8288700000000002
36.062199999999997 8.27651 -12.0481
-18.0425 13.450200000000001 -0.483066
-17.4772 58.485500000000002 -1.51806
12.287699999999999 142.50700000000001 -9.1336600000000008
11.988799999999999 -97.075599999999994 -4.3793100000000003
-27.789200000000001 -93.674000000000007 4.2720099999999999
39.3249 -65.116900000000001 -11.025
-43.254899999999999 -59.578699999999998 7.2704399999999998
-41.735100000000003 -24.838799999999999 5.9552100000000001
31.855799999999999 34.676400000000001 -11.143700000000001
15.2935 105.417 -8.4055999999999997
-12.3202 125.438 -3.21956
38.450699999999998 -30.134799999999998 -10.5115
-19.8767 66.659099999999995 0.42238300000000001
-14.5488 83.671400000000006 -0.84806899999999996
20.1172 -97.3369 -4.6641700000000004
-16.8231 -94.546300000000002 3.37669
-44.007199999999997 -90.2834 9.4422700000000006
-43.771000000000001 -50.3429 8.58948
-42.973999999999997 -32.116999999999997 7.9088599999999998
-16.9132 38.9925 0.99579499999999999
28.874700000000001 46.350900000000003 -9.1061599999999991
16.1632 92.267099999999999 -6.9945199999999996
37.217399999999998 -87.523700000000005 -7.7620500000000003
38.218299999999999 -48.404299999999999 -8.5590100000000007
37.638800000000003 -17.081099999999999 -9.1624199999999991
11.053800000000001 129.42500000000001 -5.7154600000000002
-45.104599999999998 -82.215199999999996 11.0221
-43.1586 -17.584800000000001 9.3682400000000001
-18.5943 52.0548 2.7496999999999998
-13.9192 94.2547 0.91394900000000001
18.823699999999999 112.54000000000001 -6.4908299999999999
-21.403700000000001 119.27800000000001 2.16134
-45.364199999999997 -66.062100000000001 11.582700000000001
36.372700000000002 -3.8792300000000002 -7.6846500000000004
33.094700000000003 13.167999999999999 -7.3859599999999999
25.975000000000001 55.108699999999999 -6.2044199999999998
-16.721599999999999 133.53800000000001 1.6171
6.8307799999999999 142.63 -3.38829
-37.482100000000003 -95.332300000000004 10.9452
1.55569 -96.205600000000004 2.3603399999999999
-32.376600000000003 0.060700999999999998 8.1258199999999992
23.061299999999999 65.414199999999994 -5.1743300000000003
-19.157599999999999 74.741799999999998 3.91046
37.052500000000002 -76.095200000000006 -5.0787399999999998
-16.835899999999999 23.704799999999999 5.0909599999999999
29.937000000000001 25.2468 -5.1215700000000002
28.404299999999999 37.091000000000001 -5.2451299999999996
15.675000000000001 84.441199999999995 -3.0042300000000002
-8.1766900000000007 110.274 1.5759399999999999
12.225300000000001 121.518 -3.1599499999999998
-45.580800000000004 -38.571300000000001 13.0845
35.469900000000003 -92.563500000000005 -2.9916499999999999
36.124400000000001 -59.300600000000003 -3.5766399999999998
35.911999999999999 -38.662500000000001 -3.86972
35.431899999999999 -24.692299999999999 -4.0442400000000003
-37.460099999999997 -5.0792400000000004 11.6282
-46.835500000000003 -56.006599999999999 15.2315
34.599800000000002 -13.442 -3.2807900000000001
-20.742599999999999 4.9736599999999997 8.4051500000000008
18.927099999999999 76.474100000000007 -1.5815699999999999
31.2042 -98.316900000000004 -0.40135399999999999
-22.530200000000001 -94.303299999999993 11.326700000000001
33.072899999999997 4.8416499999999996 -2.6663299999999999
23.942799999999998 47.939300000000003 -1.3026800000000001
4.5323599999999997 129.57900000000001 1.5738799999999999
-21.8017 138.857 6.9396300000000002
-8.8762399999999992 -95.194800000000001 9.0973600000000001
-47.048499999999997 -45.085599999999999 16.569500000000001
-14.0146 81.146000000000001 7.2537900000000004
-22.4619 126.511 8.0964700000000001
16.856999999999999 -96.750299999999996 4.2346500000000002
34.236499999999999 -51.004199999999997 -0.20411699999999999
-46.289200000000001 -28.857600000000001 16.858899999999998
24.432600000000001 34.120199999999997 0.39083499999999999
-13.7791 36.935099999999998 8.5460100000000008
20.788900000000002 58.910400000000003 0.69125300000000001
14.797800000000001 93.783500000000004 1.3752800000000001
-42.436900000000001 -82.713899999999995 17.665199999999999
-44.305900000000001 -75.351100000000002 17.943000000000001
-13.683999999999999 60.3919 8.9439499999999992
-9.1666600000000003 98.903899999999993 7.3082799999999999
13.7104 105.047 1.97685
2.61558 108.301 4.7177199999999999
33.783299999999997 -82.924999999999997 1.7277499999999999
33.760599999999997 -72.609499999999997 1.6032299999999999
32.433599999999998 -31.381 1.24458
26.397400000000001 11.6313 1.7607299999999999
-12.247 12.9199 10.1561
25.003399999999999 20.335899999999999 1.9078900000000001
18.1555 65.416600000000003 2.6414499999999999
-37.669800000000002 -91.552400000000006 18.341699999999999
32.427999999999997 -40.160499999999999 2.2172100000000001
31.367100000000001 -4.7654800000000002 1.6843600000000001
0.51441999999999999 139.25399999999999 5.9311800000000003
-40.319499999999998 -14.315799999999999 18.2287
18.796700000000001 50.981900000000003 4.2020799999999996
-6.3016899999999998 83.5428 9.2557200000000002
-44.095799999999997 -62.906799999999997 20.7683
30.4968 -21.0974 3.73834
-27.6767 -1.2577 16.018799999999999
-13.529500000000001 27.597899999999999 12.3895
18.265699999999999 42.152999999999999 5.2744900000000001
-13.6075 47.729300000000002 12.183400000000001
13.8874 78.739800000000002 5.5742599999999998
-22.3521 119.294 12.678900000000001
5.30335 119.017 6.5523899999999999
-1.4467699999999999 130.60599999999999 8.1098300000000005
-44.539499999999997 -35.1402 20.965399999999999
-33.962200000000003 -7.1597200000000001 18.130400000000002
-14.4133 71.391000000000005 12.4589
-28.356000000000002 140.70699999999999 14.5063
30.986499999999999 -63.274299999999997 5.7022300000000001
29.389199999999999 -12.423 5.3212999999999999
28.0977 4.7314800000000004 5.3120700000000003
21.211400000000001 15.4899 6.34816
-8.9290500000000002 21.756 13.0753
18.721499999999999 23.372 6.9904799999999998
10.477499999999999 88.814400000000006 7.6048200000000001
-3.4080300000000001 91.558700000000002 10.5275
9.2208500000000004 102.276 7.51431
-3.7561100000000001 103.054 9.9855999999999998
-29.057600000000001 126.50700000000001 15.5253
-14.563000000000001 -94.759799999999998 17.036300000000001
28.564900000000002 -95.282600000000002 7.5830599999999997
-43.256700000000002 -53.556600000000003 22.688500000000001
-41.524500000000003 -22.9833 21.686
16.146599999999999 34.364100000000001 8.0894100000000009
-7.9136699999999998 42.147199999999998 13.2401
-5.9570699999999999 142.41999999999999 11.1868
-27.220300000000002 -95.421300000000002 20.569500000000001
2.6210200000000001 -95.596299999999999 13.852
11.695600000000001 -96.300399999999996 11.928000000000001
29.473199999999999 -53.125999999999998 7.44726
-8.2537500000000001 33.329799999999999 14.134499999999999
-7.7591900000000003 55.981000000000002 13.5929
12.0206 57.837299999999999 9.13063
12.0329 67.026700000000005 9.2150400000000001
3.8073399999999999 98.024100000000004 10.298400000000001
-2.4019200000000001 123.831 11.270799999999999
-37.685299999999998 -79.043899999999994 23.249099999999999
5.2524199999999999 82.519400000000005 10.9712
-26.078199999999999 109.304 17.593699999999998
28.699200000000001 -78.672700000000006 9.6321700000000003
-41.713200000000001 -41.886299999999999 24.3964
27.813400000000001 -37.638399999999997 8.7637699999999992
-14.6188 3.7239800000000001 17.5564
11.3537 47.612000000000002 10.9711
-8.0442699999999991 76.810400000000001 14.847899999999999
27.057300000000001 -86.5976 10.752000000000001
-1.99858 15.936299999999999 15.284000000000001
-27.8918 102.645 19.5289
-33.217799999999997 132.87 19.768599999999999
22.213200000000001 -98.113699999999994 12.7448
-5.2745699999999998 -94.933800000000005 18.734300000000001
25.998100000000001 -20.991599999999998 10.443
-5.7299499999999997 9.0079399999999996 17.056000000000001
16.338999999999999 11.4788 12.308400000000001
8.0874000000000006 37.317599999999999 13.5528
3.44753 57.1877 14.1082
6.5820999999999996 75.290599999999998 13.173
-12.59 118.155 16.6983
-31.154399999999999 -90.705299999999994 25.087499999999999
-37.203400000000002 -69.419899999999998 26.121300000000002
26.0901 -58.071300000000001 12.0288
-39.270299999999999 -32.465800000000002 25.916799999999999
-35.012300000000003 -15.7591 24.512499999999999
24.560400000000001 -5.0450299999999997 11.394600000000001
8.6633499999999994 17.0547 14.533899999999999
-4.0387399999999998 66.883799999999994 16.361499999999999
-1.17022 117.253 14.6225
-8.7020900000000001 127.80200000000001 16.4085
-34.124200000000002 141.226 21.8718
25.8005 -68.9392 12.995900000000001
0.72734200000000004 25.388200000000001 16.7986
4.1189099999999996 47.070900000000002 15.3232
4.2558499999999997 68.757900000000006 15.2494
-1.26535 74.770399999999995 16.2849
24.821300000000001 -49.145400000000002 13.464499999999999
-30.868400000000001 95.234700000000004 23.357399999999998
-28.922599999999999 -8.4761100000000003 24.6052
-13.578799999999999 142.50999999999999 19.4665
-37.382599999999996 -49.278500000000001 28.662400000000002
21.689900000000002 -35.551600000000001 15.694100000000001
21.883099999999999 -14.4345 15.215400000000001
22.078399999999998 -84.051500000000004 16.980799999999999
3.7294499999999999 10.7902 18.755299999999998
-18.0276 114.739 22.560700000000001
-27.574200000000001 116.143 24.2927
-17.670999999999999 122.13500000000001 22.1006
-27.488399999999999 124.407 24.1629
-12.813700000000001 134.49100000000001 20.912700000000001
10.891999999999999 -97.1614 20.529699999999998
-17.342700000000001 -95.185000000000002 26.593800000000002
3.72167 -95.539900000000003 21.989699999999999
-31.310500000000001 -78.786199999999994 29.380400000000002
-35.296599999999998 -58.4514 29.9192
-33.723700000000001 -22.119 28.948399999999999
-19.653199999999998 -2.1997100000000001 25.472300000000001
19.483899999999998 3.2797900000000002 16.714700000000001
-7.5151000000000003 4.1550900000000004 22.709199999999999
19.579799999999999 -90.634 19.3094
21.031400000000001 -73.112099999999998 18.460899999999999
20.768899999999999 -60.187800000000003 18.395499999999998
19.5291 -26.652799999999999 18.189299999999999
-38.044600000000003 131.541 28.598099999999999
-25.058 -91.312100000000001 30.462700000000002
-31.818899999999999 -68.065299999999993 31.603400000000001
-34.1098 -38.805900000000001 31.625599999999999
17.412800000000001 -6.1705100000000002 19.7073
-21.433399999999999 102.749 26.696300000000001
17.625900000000001 -44.757599999999996 21.102499999999999
-24.782599999999999 110.285 27.452999999999999
17.310400000000001 -78.079499999999996 22.371400000000001
17.283300000000001 -52.066000000000003 21.996099999999998
-11.7094 0.64947299999999997 27.4434
15.7837 -32.868699999999997 22.6631
15.167999999999999 -17.765799999999999 22.6601
-30.197299999999998 141.97200000000001 29.669599999999999
-23.0106 142.58000000000001 28.759599999999999
-2.1834500000000001 -95.403000000000006 28.520900000000001
14.3757 -89.865499999999997 24.753399999999999
12.9192 3.2953299999999999 23.5075
-29.060099999999998 89.756600000000006 31.462900000000001
-18.853100000000001 129.94800000000001 27.792999999999999
14.398999999999999 -67.9863 25.159700000000001
-31.2181 -47.410499999999999 34.649500000000003
-25.700500000000002 -14.976000000000001 32.871000000000002
-29.790800000000001 -32.399299999999997 35.026699999999998
-28.178999999999998 -22.8508 34.441000000000003
-12.575900000000001 -95.985500000000002 33.022300000000001
12.104100000000001 -46.919499999999999 26.822800000000001
10.9201 -6.5337100000000001 26.207599999999999
-17.4132 -5.8992500000000003 32.5473
0.42820599999999998 4.0980499999999997 28.3979
10.8002 -82.478300000000004 28.390000000000001
-26.047599999999999 -71.4953 36.457999999999998
11.703200000000001 -58.316899999999997 27.807600000000001
10.520200000000001 -26.279199999999999 27.351199999999999
-24.303000000000001 134.245 32.265999999999998
-21.7469 -85.476100000000002 36.336399999999998
9.9253999999999998 -73.5749 29.268799999999999
-27.949100000000001 -58.400199999999998 37.066899999999997
-31.177700000000002 135.12100000000001 34.613199999999999
7.0751999999999997 -93.899799999999999 30.979099999999999
7.81027 -16.053999999999998 29.4682
7.55701 -42.146999999999998 30.755400000000002
6.8107899999999999 -66.914199999999994 31.8733
-26.5776 -43.005499999999998 38.968699999999998
5.1562099999999997 -51.004300000000001 32.882899999999999
2.2724000000000002 -28.929300000000001 33.714399999999998
3.4553099999999999 -8.0493699999999997 32.495800000000003
-7.1218399999999997 -1.2878000000000001 34.613100000000003
3.6119300000000001 -77.946399999999997 34.4206
-23.9635 -32.253100000000003 40.470300000000002
1.0671999999999999 -19.505199999999999 34.775100000000002
-0.94477900000000004 -93.724500000000006 37.117600000000003
-22.629000000000001 -63.460900000000002 41.218499999999999
0.62459699999999996 -63.791499999999999 36.387999999999998
-13.1739 -93.855999999999995 40.6252
-23.029900000000001 -53.848799999999997 41.974499999999999
-1.0998399999999999 -44.229599999999998 37.034100000000002
-0.55112300000000003 -37.018799999999999 36.841200000000001
-19.879000000000001 -19.1433 40.652000000000001
-2.1051600000000001 -11.410299999999999 36.692900000000002
-2.96753 -84.139799999999994 38.893099999999997
-17.028500000000001 -80.400599999999997 42.359400000000001
-4.1721199999999996 -76.098699999999994 39.762700000000002
-5.97851 -60.198900000000002 40.6858
-7.1018600000000003 -48.528599999999997 40.789200000000001
-6.4073099999999998 -27.229099999999999 40.083799999999997
-7.7673800000000002 -17.2363 40.309600000000003
-8.5781200000000002 -36.009999999999998 41.555900000000001
-10.786300000000001 -70.883200000000002 43.323399999999999
-13.3249 -62.283099999999997 44.5458
-18.929500000000001 -48.200099999999999 45.369100000000003
-13.6936 -22.063199999999998 43.711500000000001
-16.5215 -29.300899999999999 44.9557
11.4712 106.958 -26.959599999999998
15.1439 108.79000000000001 -15.895899999999999
20.182600000000001 108.17 -24.337900000000001
6.8287800000000001 143.816 -14.276300000000001
-3.4399299999999999 144.77699999999999 -3.7947600000000001
-8.3378399999999999 144.99600000000001 2.0869300000000002
-23.843900000000001 144.267 19.369399999999999
-16.500499999999999 144.94900000000001 9.7942
-4.7777099999999999 113.968 6.6780200000000001
-14.5646 116.60899999999999 6.70425
