124.16998401049023 742.70208087036644 106.08276484640155
120.01906872284189 741.92439214221281 105.29859054904725
224.17252712330617 676.98224634575001 99.600713721655524
220.88802811928491 679.04299960766673 99.741297848964194
216.96331430727002 684.88568997263076 100.87660604644492
214.21467872539313 687.73705146611803 101.31671457853784
207.75003249739171 687.28601240801049 100.30363434132659
202.83648104120346 689.24211040411353 100.19150579640336
167.01906631916279 720.72867544772294 104.30411696428959
158.30917827001861 734.08081015056678 106.93404257976803
157.39756945957777 736.90627344353175 107.61794128135591
154.81175766136386 739.65540913795962 108.05106164334254
150.98336345251857 740.93066070486748 107.89248408157488
137.51819082328916 742.61837311720637 106.53416276529865
133.63658388303082 743.92701130097748 106.37786283107732
117.53630943824601 739.3806374321332 102.87520939850009
221.46698686168008 682.4638057810663 99.449446297467773
218.26090258751356 682.22305112227025 98.938142703763617
165.03663624211629 709.98606661406927 99.594912096135772
166.29070658127921 713.70392483953788 100.83832028319407
164.50980776310945 723.83066117572139 103.50871743290807
161.52639960267209 730.20712174442929 104.93348052916366
146.65568207522716 741.78965096470563 106.21853362496103
141.09220617463518 743.02789919326028 105.80811110351308
124.24393212578104 741.21097540458391 102.96228572478014
120.74762222258715 741.15231406642806 102.46340267124862
114.81915054156457 740.36725862182527 101.4200696349306
218.85516581834071 685.63193256713123 98.652960100183321
167.70115181709315 717.72687340411767 100.84246979645553
163.69159998800654 726.99594638697806 102.97066304389404
156.44737054091934 736.04339981323187 104.58512312662384
153.23058934178073 738.06166571645826 104.72280877581119
150.01381444970997 740.07992766251789 104.86049415504149
136.08204946140893 743.1931141648181 103.82632213568067
131.547725546273 743.78684862445152 103.36819789094619
128.51935058773802 742.31023439533999 102.51954119317898
115.85761256265829 737.87310684454519 99.47441675329631
223.51067571215702 678.61427979132793 95.909434420109505
164.67270175678584 707.65542217504185 96.132368013696095
164.38969837007562 715.70783553795297 98.439948509197791
165.17433330022254 720.8404068760326 100.04597621895971
159.65898378469569 732.17561969443693 102.57749603675268
144.16031953515869 743.02478449264731 103.56881354378686
140.10220363650211 742.19597295261451 102.75873483226493
122.78604615870137 741.81070903472391 100.22068070970349
119.72763184104792 740.35466630660267 99.367814252102363
164.37088806093556 711.62771281145706 95.881887921432565
166.30827011524298 718.28276770943876 98.107195306517212
164.33978571352475 724.01534641242392 99.510447927551581
161.81858218036251 728.97034821344619 100.60761503680217
156.57431030412158 734.50942283660277 101.49157007444077
151.81898108255871 738.61743004139998 102.02487479762775
148.151994106475 742.04252523951686 102.51157524181139
134.64354794273368 743.77172510512037 101.11127923346328
130.54092986113096 742.9726265525685 100.29762874119837
127.06842494050505 742.90254650734516 99.786751117879618
165.1835915714218 714.89715067198517 95.594662434475566
158.72465852022412 731.31114904324932 99.51843514276618
138.66993530205127 742.77007551783163 100.04525185140736
166.21626771086363 707.91628101619085 92.308346800585326
165.00990886269915 721.02821644033043 96.027404683211131
163.65973681232003 727.4912438003023 97.752197078208837
155.63073527580241 733.65195078048282 98.429251659644251
154.70689427828682 736.47792033289534 99.135587376572772
150.40496313511494 739.17702866721925 99.319719944359917
147.17851320096906 741.20136090725396 99.457819437689551
143.76493949161363 741.09676270996329 98.937135066855149
135.36971981144376 742.99450318549248 98.296261091595198
127.1509446466967 741.41203696134085 96.647643309245467
122.56676653106842 742.04189684903895 96.177063504945579
119.06285719836035 741.9939089962171 95.660228555739451
165.90770041985132 711.88743323812116 92.074589079270197
165.55778177999161 717.71989652998536 93.765700117373939
161.16648283934859 730.57834312224554 96.970698376740387
141.11540718749728 742.03617442450548 97.493710886053663
131.41350582623159 742.51040229928708 96.232840910891923
163.71711289039035 723.76771824233015 93.95465663764395
158.54296518104377 731.50202976396281 95.524335778776646
153.75771746815843 735.62635260695083 96.066203652552389
152.83947804459365 738.44641737547272 96.779606473247725
149.44288837124236 738.33355334751946 96.250888282486301
138.45985433827025 742.98055866467894 96.046890966437701
134.37429965771196 742.17792266285892 95.210596671739552
125.6973439554215 742.01206741708233 93.896728437019874
121.55212482876095 741.24686712126129 93.062984346834014
166.65371313603839 708.87114077570277 88.531666524146374
165.76175067031619 716.1591614883273 90.603132200582536
165.9367236296323 720.53488236305543 91.951142790228914
163.48695404658463 727.67892295651347 93.750413028389431
146.34895840403613 740.67435813448947 95.161708658407349
129.9668597713104 743.10301655520584 93.49073586477175
118.84290549699017 742.23268691449607 91.594726667744709
164.65503757662907 712.77654163585748 88.04598631553398
161.83009977703739 725.75687427791422 91.573947644371344
160.98843055156357 730.76813217408846 92.972796877922974
157.27824549226125 734.21674757195808 93.472299453107553
151.88470596758225 737.60075047625219 93.703155375503485
143.70329302813957 741.61313577751889 93.712640601780322
132.93232191693176 742.76707762393858 92.470137463923379
124.04139835051262 740.49982038170856 90.465743457057442
165.0410165672418 719.66410129293081 88.835650681272284
164.63891420660485 723.27699821392798 89.880458556108067
148.79078272316053 739.94155221348558 92.613971892381556
141.05160121578132 742.55689081077685 92.260173487209954
135.89086342956074 742.43421902430487 91.453467991594295
128.96473986022949 742.29900080447396 90.379798470993649
120.68462910992201 740.77293870305073 88.679022369214493
165.98503678515993 710.51999873128716 84.802337951637043
162.2318614180071 728.54917900570808 89.78398045912644
159.5870945804358 731.32820471574814 90.241551262175278
155.87165261321951 734.77892209491574 90.744935848447824
146.14876512144394 740.87923513790793 91.161097841883702
222.76428041453113 683.13849978281837 83.542694253444324
221.01126828114917 687.59532953847224 84.656263753576752
165.09120716712113 713.72861649209199 84.280320943823085
165.24346324309079 718.10910066048166 85.658537761976817
163.34666354888617 726.01317063936017 87.816818964226115
152.77310427901568 737.1232226759679 89.654125399463823
149.53214178175716 739.15666035696529 89.792846063942449
139.43769831148774 741.01408190214306 88.840177780483259
138.53669013515355 743.81736334237598 89.571099510311853
134.45113170056413 743.02375690575695 88.707434286911877
126.86787557523087 742.1866288824998 87.301101360150653
123.82874219750227 740.73640886277315 86.392629581320989
118.76961277101537 742.79161107120046 86.262991943494569
224.5960529057399 681.27641543524453 81.876418226476858
217.43444296212715 686.88812728162316 82.530953034118085
164.3801436327451 721.29372871657506 85.14980786105582
161.55808720378241 732.01158377430738 88.054672424072521
158.31712470652388 734.04502145530478 88.193393088551147
144.72528690835884 741.45439290885247 88.427153675687578
130.49030660041615 742.55681697590865 86.600370993512257
220.86326884193522 685.14241200610184 81.144324408969567
214.87258364461013 687.78328288162959 81.050909644405863
167.52860273923773 710.78085757243605 80.978316738526274
164.12443609267746 725.21260074562133 84.972221105155086
161.45965043553315 728.00232667494424 85.43610997095351
155.21857595660333 736.38932112892667 87.102586228653109
147.65633223202275 741.13400773219826 87.426267689117566
142.07300614133499 742.4014368622677 86.965562824075903
137.55069150520262 743.00323398056025 86.45946851725364
121.91652979910504 742.75212686039413 83.980132572505909
165.52737675761324 714.68069134832649 80.51465557211219
165.67708199565101 719.05560752502174 81.914895021550194
160.15760095767621 732.57351110329159 85.316090716678019
152.1200276223995 738.73362170997882 86.011775779669136
134.24267322178838 743.24689354130635 84.666986621519754
129.04162993372029 743.15853852375062 83.834631633601816
126.01085550777873 741.70845027325595 82.909366985214092
119.20578236150749 743.74368592743497 82.497326571783674
223.9332253615637 682.91085226406517 78.179705914580978
219.54744431363133 685.66256952429683 78.367427451544643
216.32878310858223 685.44875598221245 77.79820261540317
212.96877185480139 689.79014597112098 78.649009794952832
170.08434613877768 712.23014595341829 79.070608010614677
164.81248738205619 722.23745249269814 81.417172847185412
162.23461903881508 727.20471115173427 82.587978694977608
157.05442753369027 734.92131052816239 84.223653301832002
149.48089415766611 739.67308046012727 84.547817985398012
146.23509413937006 741.70955328811226 84.686745706926303
142.18430355466705 740.9012334782492 83.799661738626497
209.87572653054298 689.90490213567557 76.829062972295958
166.85992680407594 712.42971643545059 77.248984576931036
162.00534886974992 731.09976080101399 82.431153085664135
154.56549340863603 737.99972502753462 83.460233289729501
139.52205136380758 741.85818339775437 82.327565256002174
136.25689495429344 743.90680077085653 82.467321475686163
133.25320446894193 742.44330378938628 81.5299408474487
129.78346516268169 742.38828058700778 80.967837165818082
124.55462894299535 742.32088089824481 80.125694332113994
121.9021035301123 745.10112242339937 80.594536793586741
221.61268022216001 681.83290859711133 74.724215775522765
222.02941457875932 684.91771589000223 75.777802450733532
217.20754968136504 684.5967660743089 74.912765515376634
214.41937210997304 687.46152237165688 75.38923556094943
165.96354634810535 715.63276620456099 76.748990200401323
166.11070074821123 720.00211438956171 78.171252281123571
163.41443152180267 722.80920458360652 78.643792008997991
158.89755666304967 733.45105511253666 81.337088434999032
151.31272732851414 738.2099123303617 81.661736611623667
147.90468646460101 738.11737355295543 81.093338662440232
146.97854184037999 740.92925761604727 81.847249739713277
120.54870326771163 741.89597775954803 77.978559478556434
211.84631393761333 688.36848250938624 73.89506492253534
208.5424660320171 690.44137561728439 74.036477227425735
163.15731966630193 726.72052864359796 78.491807948760709
162.17597195449849 729.56591964899189 79.251755999976609
155.78975225793045 735.80235824582326 80.243020735162077
143.70086732651583 741.15752983969514 80.04253305848124
138.08741875763792 742.44983165456131 79.564857487410109
128.790052308719 741.59426836693819 77.809022464986754
125.30181936611467 741.55323749009779 77.240407060864953
222.50197202080625 680.97670639949365 71.831017736236902
219.70046981624643 683.84862651287085 72.311715110132525
220.12560320466736 686.92457988692377 73.375899012194566
167.73312073105251 707.54007368120335 71.649702995128649
164.97192699709365 710.38670354112867 72.128675073581775
165.60828901505931 713.33012830524399 73.183817903470924
164.63633569115905 718.39684646177773 74.668586959539539
164.20688838863992 722.0089790047906 75.769348884765407
161.51341679567281 724.81311878547342 76.24542229950174
159.05891736981505 731.92422046991578 78.154434368415536
151.45152765359586 736.69723247362685 78.480048181372183
146.48278218956227 738.70050434823611 78.331935316141028
134.14259662386064 741.98605958446296 77.416956485648768
122.40672539734118 740.43555992087727 75.032944394948373
119.08352504244431 742.52059510066329 75.17518502927129
223.55947886119753 685.17629443966064 71.987225743307192
216.02999181941954 685.44592070003068 70.859034635802061
213.75459628471026 689.10076580324005 71.681649915203479
155.94187539926725 734.28251337650613 77.057112196940409
142.27272376804319 741.74517342094282 77.279568266236311
139.29576541874349 740.27207265339621 76.319129991423296
131.45806995626236 742.96236123267704 75.929378314809583
127.33790510341089 742.20652861724557 75.017871913149406
220.58696198896746 682.99537481047651 69.414987040559907
165.79851340383709 709.57940017776275 69.208947798590088
164.73526428698068 712.47259453739332 69.983354572182776
164.27064557019236 716.10314453617184 71.096554345934948
160.21106623336823 727.55443411121848 74.185864867542506
160.91871564793121 730.449547674673 75.248913157328815
150.03488617782227 737.27825642301241 75.714766143113962
136.62091379322021 741.24230400763508 74.831137706484753
124.45032625275388 741.08712316533536 72.800955788450494
120.29697927076461 740.35396721829011 71.885415589844854
219.03471947777359 685.49027464791129 68.59868924212023
214.11498139338903 687.46458935833653 68.443003956997416
165.07186798788496 719.34753022751886 70.908423656563798
163.5440612386555 723.64341558628826 72.072636555997207
157.79704228053345 732.81134338224888 74.149964289948684
154.05486228591423 736.2716694120902 74.676403203667832
146.91321281042445 739.64005213058829 74.615817275733832
143.02215764990945 740.96888732513412 74.416077696779865
133.94004079115291 742.21750607264494 73.339756860903606
130.46958660251335 742.17003433268076 72.755746034508235
117.5714288344692 741.36310967494001 70.377659158769347
217.48850103789096 687.98019857905524 67.785790602857844
166.05189277955787 708.02230881602509 65.938358326042021
165.5585881269468 711.66727266616363 67.063742648732074
165.08466690652631 715.30014050565194 68.188321609686966
160.99589425279424 726.76019013558516 71.30809484354063
139.09923685393096 740.49854356621017 72.24532224644966
122.16836749583206 738.89107105714527 68.920944095189412
220.93247662053204 686.22677138623237 66.393031601834082
163.74962476465726 722.10431263176793 68.840589453225419
159.65947451565302 731.33793739489397 71.235181393773217
155.9072311180222 734.80344892376456 71.7657251989001
152.16784958827799 738.26082635510443 72.295690621309319
147.66952410092426 738.86064615416626 71.748378905316144
142.05866959433712 740.15855550970696 71.248699575402725
136.4220120417603 741.4726518200431 70.750131817911722
132.95885381719722 741.4229915502948 70.158505414688705
128.37994830593243 742.07343536240683 69.614663431979579
124.24459881623108 741.33429829190197 68.681893518231561
164.65062464416712 708.61877560437233 63.095724771279976
164.92086960589967 719.55558919261011 66.801625442173702
162.88123450438781 725.27785307521617 68.3759206381431
159.09487911094772 728.76410343002192 68.909728723130314
120.70455666870686 739.52319286116858 66.091947807841791
117.36201253672766 741.62036467173789 66.235016400406352
224.52141637272621 684.78977327029838 63.748726034235347
219.02306550184989 688.23953668275442 63.984068123812051
215.21029825022976 689.52170957200019 63.773691500425684
164.30453647996057 712.5805474946053 62.963987760571712
164.415017225013 716.95140242272487 64.453552764294358
158.3709496364441 734.06407345624166 69.195141432434355
154.01741406415982 736.79555932987751 69.381482788722622
150.75227026878139 738.8441687886459 69.521238468492555
145.62655484189111 738.72998918910434 68.619901774627465
140.62704877446765 740.75674084315688 68.460327450273866
130.87651862319416 741.32420190793039 67.009799787203519
127.39163629639995 741.29055731086589 66.411810646751576
221.96317107794738 685.69281703735396 62.237482712072278
163.0058686189459 721.5742507604125 64.385597930647094
161.98517458497133 724.43351020034606 65.180075975611373
161.57320258737514 728.02034389602716 66.323909674009258
137.95207669686522 741.73122896762538 66.959558665826677
123.39760533939176 740.87796873646096 64.203932550726478
116.35779464607407 740.85709044357634 63.003648403801975
231.57958415046227 688.93807579049076 63.596512212281539
226.5134790509843 683.24585414873684 60.795545204559829
226.90868763845032 686.32445507089199 61.910311647248449
217.70321796939436 688.77356910313188 61.172644684267539
213.88442527923974 690.06071408345531 60.958883245393395
165.63594252191007 708.13532927751123 58.874524959591213
164.55359285423032 711.0321429340222 59.675319733636172
164.64947494834507 715.40737797144652 61.180119750057059
158.43302927656555 730.396135886308 65.218449354095014
156.96425152731956 734.64416958425784 66.412974414173846
148.24428242900683 740.11523373777413 66.786209188897175
143.72834405627066 740.73094902044249 66.225065482036115
134.63838138820694 741.99876056577398 65.105232843253162
128.96150734420513 743.34286759662268 64.59377985878433
120.03101515532114 741.18406501589129 62.335432092281252
222.66744513070176 689.3916756637492 60.850151124991527
219.37810919693055 691.45546370166903 60.990942284041409
163.74536795921642 718.60266524722795 60.718780329815814
161.09085228003926 723.59292312856223 61.96956750492717
160.07576023573233 726.44627869203532 62.7711090645723
155.2928559657559 732.77192787658896 64.112989034180771
153.83795307013963 737.00946413565237 65.312398580931642
149.33856125676107 737.61599410832946 64.746889639881118
140.43404836318928 740.98637562245381 64.369930033748858
125.27350534066341 739.41582835942063 61.228304074295551
230.38099769036893 687.17351933764871 60.04004096242889
215.20424421599205 692.26507018358132 59.16613041316441
165.38820217589216 710.22876639187007 56.727857247468023
159.2181495080041 729.60708489633066 62.324231735589194
146.67852702049879 738.58230509292787 63.241828049375613
132.56097569441755 741.90165624348276 61.941709636297929
122.55313333741134 740.4271624316915 59.703918772323277
118.09640152103788 743.22339546961757 59.894677165699733
227.84048863723035 688.06543390207321 58.528042059538393
220.84755996778199 689.13173656995207 57.679238155272515
163.87809712535682 712.69782424659832 55.907934509523898
163.3942037757115 716.32254757981536 57.076739334547568
162.41043522853249 721.36800391827569 58.649671478862899
153.39184796241068 734.77583902871925 61.714615465641543
150.10734777581422 736.8365930326047 61.855199643567147
143.5383474026213 740.9581010403756 62.136367999418383
138.53023600361792 742.99324023768258 61.968026637390665
128.42724429978472 739.36854639965668 58.956130156250993
119.18182149891788 740.7410648382205 57.821038119906405
223.79034004292242 686.58632379609605 55.923413616987773
218.28392686692877 690.04114564259294 56.159100791805088
213.29483323890787 694.27783772777877 56.757159786497056
168.49502316463617 710.21503613134666 54.44488914901018
161.52702145481459 724.54499707736659 58.20390572230221
158.8146661429638 727.35322059546809 58.704522212342795
157.3143371484328 731.61394951155944 59.922328339231029
147.44633663966647 737.80530904984482 60.344701504242806
135.05753804174446 741.15242311645238 59.336860617822623
131.58489545624315 741.11827102506413 58.716423424815247
125.71350077233654 740.37625429576667 57.429608344744196
230.31880812869036 687.32167453180148 55.942230323567742
223.24560402173773 690.65368602637614 55.858622685641478
216.73880880002395 692.52440938020288 55.364404357686936
165.33268172314172 714.82479206352514 54.087507089444955
163.22174269714947 720.57267942621934 55.723284171010363
154.16954547062562 733.99323729592243 58.815237194411736
144.30153865479144 740.18460079137458 59.237610629380555
139.7618875413458 740.82110284301461 58.659193999824254
122.99376731000092 741.38898218082159 55.899710206778991
117.24161259775155 742.78629611867052 55.373215819601
227.17863722608121 689.69746734765101 54.836762757992346
220.10080781072554 693.03297665495279 54.751531734853813
215.7150261715056 695.78469428616881 54.939253297125958
166.52230964865248 710.07009931457901 51.222084100449734
160.63563876446773 723.71086369965326 54.967680253939449
159.61201939291061 726.56366516090338 55.787860400324462
156.90245499171681 729.36894131537974 56.292014436269938
151.02474748575059 736.37252903745207 57.708146319549513
137.07936598137252 741.80630095206038 57.14048833310153
134.08876132186469 740.36684813337331 56.103947792297475
129.97756048763222 739.63054518015883 55.115388501713255
224.22587233964833 687.53700756183707 52.163250314012004
163.88774381727302 713.24293731284843 50.455793531744405
163.3980743959263 716.86411856008453 51.646751892906366
162.34177730756312 719.73622397072972 52.471994866782495
156.65151672123295 733.24838304332047 56.225612151419853
147.87995580794342 738.75181682181505 56.60105517473022
144.45049827580829 738.69415153757745 55.967819979721924
140.5283865458598 740.05030309111146 55.745695607447544
127.26606297196764 740.63863599664103 53.583292193340242
122.00584835176176 740.62503923286454 52.638427836010834
229.65695754897473 688.95370979223969 52.250943843849825
222.6720537223535 690.02393573521169 51.374411788473168
218.19699643663358 695.03984065187433 52.349628296314847
169.08423513242116 711.50117324807616 49.357934092876206
164.54487846321331 709.9329684611871 47.984891544767265
153.50671873635793 735.62767478485023 55.11852127655763
132.64332409472087 740.98923528951832 53.268683138846427
117.50997068712178 741.65161489394541 50.781750591998218
219.51800855740225 692.41022561896318 50.264059710917252
161.59038735672868 723.23770087883452 50.775208555179745
158.86084860747081 726.05371952386395 51.285688759058985
158.43926357352353 729.62866235948195 52.484721112714993
155.73712903405465 732.42748711447109 52.994028353255516
150.36191992004944 738.00696471151969 54.011437579867277
146.9397722132768 737.94710570545476 53.370575500859417
143.02130825750817 739.30216254038169 53.14464513471421
139.09317639816572 740.66328752697711 52.91912143453942
135.63232769165921 740.62770788195235 52.279922990100772
129.30596057559853 741.28661609136202 51.369742834618563
124.69545323513427 741.97235278015819 50.779752429384644
120.54101953771215 741.26855122115376 49.776608517829459
115.24334914223181 741.28197125838119 48.822373477985082
224.66140463637419 688.4876913275782 48.403087011036263
223.96830180409927 692.23119716479948 49.619219314625752
164.24273783609868 707.64658390699208 44.265883656559254
163.14001618359708 710.54423270081293 45.104070433548202
162.6306981590198 714.17236550751011 46.312304887369805
162.72452615975601 718.52499376454398 47.890240036388832
151.48341205540157 735.50372837286545 51.930751906375065
218.19888625742374 692.95037213195485 47.432523853158443
214.38081975125249 694.2436341126753 47.198639241466481
160.70566464257865 722.40901076658736 47.509509147323399
159.23607026173005 728.84243357919411 49.558961614269265
155.92738246994583 730.91836331801733 49.700581077443189
147.71679681632099 737.17209226176146 50.449319724564674
141.589745883994 739.91405225764026 50.31426496793523
137.17816636632699 742.68195593796008 50.503090738862454
133.0814063979451 741.94548523209346 49.486504382758255
127.8527241018208 741.91920512167599 48.518359768490541
122.59505948811329 741.91117453473362 47.551479958048731
118.59801258738753 743.31673200753539 47.325256119748133
223.25191289486622 691.28965748734822 46.368203987657523
162.83634977275625 708.26358362698033 41.370521266900539
162.88977815514875 712.63678348526537 42.964785055610548
161.26826191608905 716.95920823789186 44.231612317538577
159.81300569047784 725.58397477040512 47.0878496204827
153.36838505940619 734.03416648778239 48.960244883322673
145.04381681649102 738.15548385396505 48.917427573233965
120.18322791082386 739.43163488069979 44.792723833826585
116.81165865261937 741.54701757319458 44.937034768689159
227.90634039639878 686.57463815860126 44.121718246310309
226.69588889322404 689.5362312019555 44.975441397547854
220.69180556087161 692.20223075565639 44.831480626086204
216.87738963127248 693.49439859601546 44.59378275798997
212.4658097194137 696.26230252365826 44.782608545789515
160.93679422415886 720.88493003263693 44.181410667532759
157.23186645369748 728.71486407688508 46.344811286827735
150.70368464632281 735.01296146782363 47.426169844940205
138.42782931636498 740.51285239124229 47.149667414838518
131.0027296146539 741.86829345629155 46.264602096780152
124.48814423267845 740.45026191650879 44.538627336378056
229.27547677149499 683.92319150300852 42.008526521642807
215.33057064855336 695.97394900559414 43.813772855073125
162.54491007335582 705.98243406572738 37.614528176697434
162.58051647742485 710.36203523815664 39.224168515239057
163.2216095768481 715.46221219888866 41.210677647942134
160.03407103761288 724.06507772062366 43.763863210271609
156.36355247615467 731.87043908168209 45.934912116646387
147.54039344082059 737.40624644232173 46.312563658500835
143.12881392315353 740.17415012264155 46.501389429428059
134.62721877952322 742.20672790104493 45.656905083695278
127.65820455838059 742.17726813022796 44.344037722054281
117.589252236638 740.79136033119994 41.955492652457565
225.38729096615049 690.0721624556196 42.136155350915203
161.1761055806947 719.36055724751338 40.838386839838563
159.73573862638688 727.96343722802749 43.73233538435295
153.20025413215109 734.26372619848667 44.821313378335958
144.25005801584581 737.67942946675316 44.395158205047494
123.02658833226548 741.09643543290008 41.662029908029069
232.39972201192938 681.6832565443566 38.963062341121486
229.4454044505909 686.83473618732557 40.308850020953571
223.83177206737895 692.55537923948464 41.361996186841907
219.51934895907311 693.06252045733697 40.733708073029106
216.29366715106812 692.88775763484523 40.058873490479471
214.00487377360582 696.52240055238258 40.969740320432777
162.28351004278085 708.08682942979021 35.461145409097867
162.90474335486817 713.19349697544294 37.466753890114489
160.85056836108271 723.27658134869216 40.806202083346875
156.56318462718463 730.36372780449676 42.615475806103632
150.03695578814751 736.65701331529135 43.707714640025529
141.07751032371141 740.07971608605544 43.278298356841105
137.75915379691997 742.16171216168709 43.420331664157345
132.5530458025014 742.13029223679359 42.423860442242471
126.68379320618209 741.41560291867074 41.049307020303331
120.77584044156237 740.72519477644823 39.676410054761504
113.54167612049054 738.66832545831244 37.547408238527851
232.89947936805532 685.07616761992745 38.912005313101872
216.8673847490445 696.23366658717543 40.006479295305724
161.27602660889272 704.74409778300469 32.587496323817732
162.54416004820359 717.13270357674833 37.432419326192246
146.87366458264523 739.05029828978945 42.594108453586216
119.00782532680461 738.95472688868631 37.2545335856272
229.85873650696124 685.19633603416401 36.972959997896055
227.53039525018562 688.85340641316895 37.892812147104735
224.72154062767765 691.71381059066005 38.423129482902937
162.60006484845411 710.92423322127922 33.700385011761966
161.61801414081674 720.32515917763021 37.023174136824025
159.50892314535361 726.04082540139405 38.753825638048056
159.06706227550842 729.61229518361188 40.003006811843647
154.64257849702932 732.38829522734306 40.192384914874651
153.63642413835993 735.21580196215143 41.055644417539156
143.5813816649673 739.32828742233744 40.665829632538134
139.64225867326184 740.70168476611525 40.424341291003998
135.06786843623183 741.37557908980807 39.79995911002618
131.1045205063308 742.76410775494685 39.559490500427216
124.59040581908584 741.36071590696872 37.787840192465637
114.3323033323291 737.91398387467234 34.536063645566003
221.56286932288992 694.10359647227813 37.311161198306593
220.88337713392059 697.82243611157367 38.57600905387784
162.71656758555315 704.68491107223713 29.943843516429979
162.15797248629121 708.32783222050989 31.203492404088138
162.80299449597311 715.60564268185067 34.059332409029025
161.2905646241893 724.23700909989861 37.007499175623707
150.47312579435635 737.609089078956 39.942045679228727
122.34416339751908 740.99023499178816 35.791063627379629
117.53682115131085 739.61645027472412 34.349151688064808
236.50800455520016 686.23162060622144 35.838035729060834
232.23275366341392 686.72021748881173 35.193549973208746
225.61538359852983 690.87207350393726 35.476788663344223
162.3445644364574 713.01889175905694 31.564974736697422
161.86671367309305 718.80319297602455 33.654160869463794
157.65803222649146 730.21900825970522 37.144270397717719
152.72196689123962 734.41286842221666 37.76928711543087
146.08524753058884 738.57686453064662 38.053354000020363
137.58268393146091 740.6208680851289 37.176065225938828
133.6229917456746 742.00830170421455 36.931775996168199
128.39041577003047 742.00065669577407 35.914524215310053
112.85353093614128 738.5859575056229 31.614579158596769
229.06945930437774 689.11350444189327 34.07994392174794
224.55659582516148 694.13753097594019 35.104238230365354
219.65065891697634 696.11931438803765 34.898660532916324
161.87714137844841 706.05621644116115 27.397778559253027
160.94251210487539 721.99084444737332 33.255789182668821
159.35875534613217 726.2733860905264 34.570274076861097
149.54942550617307 736.81315108435217 36.652426997267469
143.40353585574854 739.57290530093178 36.499914992378081
120.73168263591401 739.54569206497683 32.067886473273973
235.21379486181763 686.7627091266412 32.985341463852819
221.31699547076408 698.76894206868349 34.832369902537152
216.49198927505557 698.50910389937656 33.786677891976296
162.60689501929232 709.30774431292616 27.327724643213742
163.19607877357953 712.22521771090715 28.554705331593937
162.66946654117191 715.84276141379598 29.829444659831154
156.761865460281 729.41064125569869 33.83888378331045
155.73462257154347 732.24653096051043 34.717642500497959
146.87276336790899 737.80661949705063 35.09695049874972
140.09750739662479 739.86615675300379 34.552156715550666
135.51832250202341 740.54777200636204 33.913348877631279
130.91983033191394 741.2415664892203 33.275391729438468
127.42258508381246 741.24435350941667 32.590274381052609
116.70531035334704 739.20297356073843 29.70983415797042
232.66892366962276 687.67229325247638 31.427881012411945
228.37557107167976 688.17576618439739 30.773189032695939
225.05721139135437 690.25776423861248 30.915222474990685
224.75087142293808 697.02065643592812 33.443696620995524
162.74796828193246 705.25938588553208 24.359290719871467
162.30989848361446 719.77058071684905 29.827929672635264
161.29138998401942 724.79004708372554 31.548428907146274
153.15941148498092 735.36772636686817 33.99261401716376
143.57682850630329 738.09473200597677 33.145110331956573
124.55188608896265 740.1753510103232 30.18640644622991
219.41318439231588 700.77580588011278 32.430466451343989
213.03570717963055 698.21004402033532 30.177118360421559
161.18799975508364 707.7555466100273 23.554287480063806
162.34540699450866 711.40741904620518 25.188945084884153
158.68618400984735 727.93185626234401 30.819198769162426
154.8328533999487 731.44406692553434 31.405195960495689
150.48801803733301 736.35908306907459 32.433262145815888
140.88506526597757 739.10059568722545 31.581127678460575
133.44925036943175 740.48247051063936 30.63626615178174
122.3067545784902 739.81186949737923 28.165830371722961
118.28183793414257 741.24267952561377 27.917057471483645
225.23943845231668 693.15084175850495 29.247882564138649
221.93075322277878 695.22676988972921 29.389501917642519
222.84706004884606 699.02752043284966 31.041793182456558
215.23942325271059 701.61282698179286 30.521646198380381
163.08851781586185 714.64279980350034 25.142061401932608
161.98909178850528 717.52046211755373 26.034883599839588
160.9479222988823 722.54937055386597 27.770952219866672
153.95724007385911 734.59280303722073 31.030290743972728
147.20260246718971 736.64298584337735 30.473664865061778
138.18731839783231 740.11147540025217 30.013768428549156
131.2276632790298 740.10242703686117 28.620153541632703
127.72850787123281 740.11006457875123 27.92417837896528
116.02006371538857 740.89269151337123 25.888089813970623
225.11605725030961 688.1702602576521 25.880658865873897
218.68339841963495 699.85939888153985 29.128890786442525
212.66756763179501 702.54053791603519 28.961683739367686
162.65330094563171 701.12089084846139 18.36133547223767
161.49217838231158 704.03606403666845 19.260462569976653
162.05784660514826 706.96112306562327 20.510363226841946
160.4684963351275 719.98475337704485 25.25010140869955
160.61784257928258 726.45092410304551 27.791909872456813
156.75437473179022 729.96823325297169 28.381973670399816
153.41666181378071 732.06237387372039 28.524835475871782
150.6819307153695 734.87155895404373 29.066611033338802
144.51610874891367 737.64673962899417 28.905799660563844
135.97867206981658 739.72337816177912 27.997126217781272
124.86172497513695 739.04510983365617 25.500033584368737
119.57008748290241 739.08527372359572 24.45243959822983
225.64047195825407 691.53091058462837 25.879648773072063
217.65391274098289 703.09817246769103 28.780680902967447
214.50126780837684 700.70531851941928 27.209503477805413
211.26091229233276 700.55290281242117 26.495127068008856
159.35044606289688 705.80453371817543 18.053826047309883
162.7936926494603 712.38594095555823 21.318675803658948
148.00048022660189 735.87274433924085 27.496708607922415
141.82362426431678 738.65551158869562 27.334565307779314
133.26747437911894 740.74568089249397 26.421221613546265
226.02702229639215 687.3296639209284 22.897033710570895
224.57271235348355 694.79489187471211 25.529427241117787
224.37712462692804 699.28609879701582 27.251216462376021
221.08778839751307 701.3498870204279 27.39200763408013
163.54224983718672 700.32284239887281 15.291037439928743
160.65709737606034 703.22514506484868 15.842876945295359
162.40620038689298 716.32530826651191 21.336612483024055
161.30872500577345 719.19816249386531 22.240307913547213
160.80726800261783 722.78910287087683 23.546823563056762
158.68323525206722 728.49025059960479 25.351154675918281
151.48485884279143 734.09874690718118 26.087610107152159
138.50809210733445 738.96428218319818 25.358000640124601
129.29682285725471 740.37510512153722 24.038846577884158
122.13600120208889 738.31522990405119 21.775224829263038
119.23414589828951 739.04373363427987 21.471058299982815
115.82871399282214 741.18036235568775 21.61681863419301
223.01464281387604 697.27254054322134 24.77729069989266
215.7501007756033 705.10503683559693 26.37877748973699
158.50627116039675 707.18359667973118 15.493357759740775
155.48756252673883 730.90803234543091 24.226156409315763
148.80246795571259 735.10237992373663 24.512293864401897
145.45992382373333 737.19955173430594 24.655362456966486
135.18046974442098 739.28296314458044 23.374622303269973
126.43678430357744 739.31129518039234 21.597978022731809
115.20018304631287 738.72071026624292 19.06768262038878
112.27922700690965 739.46186178739981 18.762529438794559
228.17217794435379 693.35368225283275 22.877357136737601
219.69415735155962 704.12756736758433 25.400265492875633
162.69451598614887 701.70772252468009 12.719764758788642
159.81055327188017 704.60808476227544 13.275203200976421
160.37662498925869 709.70761053934234 15.411027855738268
162.10844684293534 714.07566072305133 17.496924281487281
160.99718645004225 716.95470815574765 18.408492312490921
159.35452038318147 721.25814707600102 19.774828216147057
158.86146300313499 724.84023316319031 21.0919410671994
157.79861515362518 727.68897353958801 22.001454081019517
152.29189693991179 733.32581194895056 23.101150694584305
143.27232155427674 736.80302925455908 22.623212926491419
121.8037136987237 738.27259113896139 18.790037267188154
117.63042303111592 737.6182527156875 17.672662009907867
227.1059147602366 696.61188332153131 22.541646703609103
225.90718920501001 699.54467716118211 23.460639742295427
222.61785297559504 701.60846538459418 23.601430913999536
139.45263056374534 738.52321071066115 21.08744752624284
133.11285151351308 739.22989235085379 20.057300308722802
129.11522451822623 740.6477603946804 19.794581264764986
124.97639139872217 739.97352929886756 18.670228488788041
114.86339304256478 738.68633827534632 16.066276982387592
111.80488496019206 737.33429198108968 14.89568380494643
228.58178797935125 691.73434448457431 19.490492661647636
219.04504456980698 700.98708178616005 21.20567713677076
217.79314496905522 706.13147893076064 23.001899254359159
215.15450622729378 704.51779356758857 21.807849196477491
161.84677981301058 703.092606443931 10.148485034455234
161.25252047518757 706.73467206512055 11.480903438568021
160.11026609539715 711.81027584230878 13.27243248799482
157.98584587303071 724.04047591316237 17.719941674964502
156.38543576947416 728.3138184718473 19.095425650772825
153.62359136740002 731.13636754212337 19.64928700847571
150.35728961269638 735.36513844550996 20.660395498045716
147.01473917364933 737.46231421324626 20.803464360567318
136.7442880626748 739.54724543350949 19.500425409534728
109.52882666301082 737.00753975633029 12.823469203406717
103.36797012009924 734.33460311998715 10.473226886816406
230.2030483540363 694.3943326817465 19.48091501947755
225.19650334591068 698.62464880354548 20.13268323824127
221.89749246861231 700.69450707360977 20.273888507172387
161.42320020497687 715.76537867568413 13.675179937487485
160.3138881362205 718.6396218151242 14.597614157913938
148.18385988451644 734.96330574050535 18.616689767953631
144.83164071046212 737.06654784504997 18.760172474617548
131.6628913965784 739.88319049561767 17.136411091453226
128.1606424441203 739.90226217154316 16.411323732206711
121.62216666754927 738.55895293821982 14.503771360547717
116.18013048645497 736.52771794510568 12.54928884718737
111.34276962491492 735.20622168735918 11.006394247542744
107.11979313227795 734.58843102514084 9.8747177135152242
100.55554692868316 735.43953157771136 8.8432214827280404
228.64047890702676 696.87122045596959 18.739927809431151
217.64377578560311 703.77074814651189 19.21061204763771
161.56642204418938 705.2100270271668 7.9922324045954838
160.97894772010704 708.84425139325208 9.3353171192533182
158.78416884670878 721.10664912742607 13.822357853687322
157.21111537543322 727.53629043091382 16.086230595284519
154.4424359576509 730.36199711592258 16.644065804562558
151.68338163480024 733.18159700771298 17.201471886342233
142.13321546151172 738.08502161920728 17.170928811426336
136.92888016977145 738.08467958017036 16.075754039561446
119.3715213925542 738.21512533399823 12.434150320237734
104.1914156566931 733.58840762959449 7.3728552321712186
234.89853454769866 692.26426388706386 16.785589710561908
227.58179237877374 700.11875648663681 18.422188103203439
223.8857074073278 699.1739080747036 17.256964093941122
220.07596662821453 700.47628087506848 16.9789033654435
216.6173382807238 706.99805056467699 18.891492008883745
160.56110175684717 712.79436392849584 9.3801477536572406
161.14680029228657 715.69066344404257 10.678464892026227
158.4303061025181 725.01064764983414 13.882699162493793
126.70271387365511 740.56533804262483 13.476168997613911
116.6069502627588 739.28405841829067 10.820353183853513
108.58070692519374 734.52841099192381 7.1936657250115559
101.25463689513202 732.59723489414978 4.8604099056281598
231.37728645052306 691.61949097244769 14.360237221363889
230.14741196170473 694.56585373571556 15.298827095011291
218.52447166357604 702.94562450978083 16.239263501099856
161.85703580769672 708.05421350229608 6.2618269510721802
159.60442293697531 718.16629630131729 9.9019461743693
155.26531037595038 729.5874207232273 13.631348099427157
152.49942270025849 732.41018185947109 14.192713676438245
149.74317356506742 735.22683010302353 14.753642407864959
146.39095439101311 737.33007220756804 14.897125114528876
140.69710000370031 738.72777576920146 14.254901079386798
134.3589250860208 739.44247698961374 13.197317683205711
130.86440832713555 739.4602768927931 12.460956928651854
123.83670566700448 739.52020624579609 10.989907699211699
98.95384823120969 732.29801338892969 2.7527509369926975
229.07537349426968 697.82051222378698 14.985270164276471
215.87932998507631 706.09994530404401 15.550091240000938
163.17073944296095 705.48115274565828 4.0177058191052879
160.2868793820532 710.55079649632034 5.4755090804572433
160.87128029912429 715.61784955560915 7.6744367563601372
159.23054137321157 722.08099504300822 9.9686055459253566
156.47889869765083 727.06768091117783 11.420756741041487
143.69478062948065 738.34892313007049 13.302313862686219
138.49719598722686 738.34972193781675 12.190415060308453
119.82235788543767 739.19921523504581 8.5418584077282844
234.84977203779999 692.43266844107916 12.599550564771619
226.52380414301768 698.74266128698548 13.402533099210359
223.21995623742146 700.81555439488363 13.543945404100725
212.79187129593083 706.27218882126169 13.543679554386244
161.02298616271889 707.25459404536628 2.8076771467099775
158.29050366859525 725.26125945477372 9.6238668044642282
153.31949906939968 731.63855497270765 11.176465873526809
150.55641574993388 734.45836264585296 11.741361278356862
147.19935905484203 736.56463989738495 11.885051042070415
130.5406371449277 739.41355663285253 9.4717721389266671
127.03087944015721 739.44337239775382 8.7287883043621832
117.05842446512526 740.26954031726177 6.9225556135230022
231.68647684733031 694.82595357930029 11.485951691482683
220.06128659550069 703.20534390622254 12.431962763160641
216.75743868990446 705.27823701412069 12.573375068051064
210.28051135269453 704.99976620154143 11.056845078435401
207.09453322200318 702.65649749146064 9.3994477353935508
162.90914644271584 705.41154975931397 0.9765543984182159
160.01756032310311 710.48245208753042 2.4456593628293604
160.052708591927 719.14481821067034 6.0316768931440947
158.94729781564473 722.00944517671019 6.9758575788029589
154.52749295565059 729.12471780224234 8.9587999632454967
144.5021718918498 737.58585325381273 10.284780509923962
141.04121592283258 737.58624857222151 9.5360437026956788
135.9294860838263 739.70790045277215 9.3064113852582864
124.28562903143916 740.50012015307288 7.1141327601654893
121.26289255503031 739.14003248144513 5.8982058702975451
235.27890586631469 690.8106374493882 9.1826372553223905
230.11800691309782 697.30355735624801 10.754345259002775
205.53561194336527 705.13229029975366 8.6546545146039762
160.77744472256637 705.00563960474119 -1.1365062368719805
159.60710902301719 707.9098053292314 -0.18588961154847539
159.59835094666852 714.4250599961432 2.5161045221453833
156.29083207839716 725.17982909204795 6.2597853441748725
151.37368859428244 733.68969103704831 8.7215764694546465
148.01179437815301 735.79900343556801 8.8654732902178921
132.58826563624496 740.05124206908363 7.2743098162986826
118.50100491366499 740.21026796543833 4.275165651309635
244.62221543315866 681.02082193226477 5.7216987351513922
234.18304633315859 694.07671830996344 8.8810952248784361
228.55556227580172 699.77618679444231 10.026130790655998
225.25655139850335 701.8460450645066 10.167336059587115
214.33093535012296 706.53228684998601 9.7308113290295069
208.35710090936306 707.0272893969925 8.6302172149602825
159.19718604091184 718.35269676507505 2.5967097674629258
158.08450907934275 721.21955790935237 3.5485326204773173
152.57608638221683 731.18175287844645 6.49685036362132
144.70909144640632 736.117645827601 6.8335758783005645
139.08980934939882 739.64328364842572 7.0740941030715021
128.61269738801894 739.71069826382723 4.8099940859116259
125.09450438999852 739.74932753469466 4.0563831401475454
249.21915998587269 678.548778449873 4.2649869907003222
243.01270233848464 683.52663034059026 4.9845736169114048
231.01975280555592 696.47000707790539 7.7674819952458165
224.20778909451053 705.07899206695788 9.8747348839586948
221.00283510968586 704.92228589008573 9.1040595831800601
217.19297015519686 706.22891896500141 8.8132189432471932
211.8263252679896 705.26100557169491 7.2272528563104288
161.67225618936453 704.21585948022198 -4.2435752359543812
161.06191302946343 707.85003446857127 -2.8557233623388356
159.32452222366504 712.19140008093405 -1.4195926729144617
157.13369095201546 724.40353458195739 3.2133592352320193
155.50755997654682 728.6750937921895 4.6447277474926523
136.37458402279663 740.67946418736756 5.4636632149665729
143.22182955264077 758.05851597023934 14.248943885945891
137.2736738642285 755.287969188327 11.780030234852802
132.86209434656149 758.05587286864693 11.968856005780026
129.38302007228435 758.071152314443 11.209920827752228
221.60129949946838 486.15572942465292 -84.227243400345856
218.75054267567936 487.9443451058761 -84.105224438016762
247.60297959172004 681.05817422908672 3.5299686073165617
232.39799077973055 693.8474934482548 5.547997599350083
219.96654747369337 708.14621210333848 8.8145743237390661
158.92503608854082 707.45095088324717 -4.9795049258540303
158.90823325485172 716.12679701251147 -1.3328302840345145
158.36013218902104 719.72012341954473 0.057850132057239989
150.62467897734956 733.23878613979014 4.0349079421690135
147.25310971914507 735.35416883228493 4.1792188770315306
142.75768404153905 738.17467908894469 4.371633456848258
139.19780116227633 736.07556357698127 2.7010197852169995
148.69759889135474 752.86162169384693 11.865049579900813
146.02693686890149 755.62038869151434 12.435100212073394
130.33681546482103 761.13200120146257 11.283688706425266
217.76027156863688 485.8460633627609 -87.049754318138696
245.0622108648318 681.98124786861081 1.9230030056000373
241.72450110035624 684.07538651077607 2.0658646760934403
235.72211121878422 694.33681815354817 5.0682198213498282
229.59743317543342 699.26209826500849 5.7879388015037421
226.29358526983719 701.33499137290664 5.9293511063941651
222.98973736424097 703.4078844808048 6.0707634112845312
219.68588945864474 705.48077758870295 6.2121757161749542
160.28611688329448 702.69441525830712 -8.1754755883797543
158.48334438957659 711.40341907339689 -4.8953436813112035
156.81784949196685 722.19145369441344 -0.7059259897694119
155.17108587488076 726.47237163905515 0.73728951446094015
153.55335535395477 730.73507837432533 2.1792480500924967
157.72193292624837 749.77088333194843 11.152214810802889
154.4422702606895 751.82860218884639 11.292591931678828
143.66665360535512 760.75451200490488 12.668950447728832
140.69709549610508 759.37001981830144 11.423355589256687
136.6181498904906 758.68150929849025 10.225227921233682
133.31914344784934 760.75136478617151 10.366433000351208
127.82079306971275 764.20112788947381 10.601775068837583
250.7717238483707 678.81116378046818 0.41865648295265601
243.28091403860105 686.75694844053157 2.1174889956584479
241.856720426295 691.97838660615594 4.0160320710752444
238.22022180131182 691.0140667303217 2.7934954327523656
233.45344411874419 690.75897426989991 1.6193473517677148
232.5588176911815 696.73010692149012 3.9546065917172086
159.81726318458635 706.66458668378141 -8.0919488128819808
157.50396692734159 718.93563681893647 -3.3989714972469187
162.44811263983047 751.53845832439231 11.54947640214408
151.78975339342401 752.81587729594048 9.7087044331556172
144.74739629282743 758.31633214167414 10.469516408464472
248.0423373139102 682.01720816750912 -0.26322146441373206
227.18973155930308 700.50734464183995 2.9354206545087891
223.8810465268611 702.58327264940283 3.0770399995765274
220.57236149441906 704.6592006569656 3.2186593446442657
220.40016581053686 709.09271806044831 5.0709351723983787
159.36644366452077 710.61979109046479 -7.9982543682752976
159.35970662578472 717.11227709662217 -5.2306206761931548
155.43105745316569 724.9840213326944 -2.7563629044041704
153.79749614151899 729.25301087153025 -1.3027943435094471
151.59914442429488 732.79506691362803 -0.28623137735064574
165.95584314868546 751.9029609434449 11.091028567144576
158.12398417397162 752.4913278674594 9.581351868677416
148.64958805254923 755.19166895877538 8.6032294869406201
138.79608749275985 761.37393097043173 9.0249820207174594
134.87742680218537 762.75121001423963 8.7315055101626058
131.40972868289361 762.76413237043062 7.9574696783980698
129.39520359652988 766.19085464186116 8.9661572984977056
245.50220712793845 682.94167561981726 -1.8756999021231877
242.16449736346283 685.03581426198252 -1.7328382316297848
241.35750679185355 688.78447196690547 -0.3091461472224637
238.19017650223793 688.61019063987385 -1.0996425535072376
236.92657719003631 691.56451623517557 -0.11949214809658315
